ply
format ascii 1.0
comment PCL generated
element vertex 1534
property float x
property float y
property float z
element face 0
element camera 0
property float view_px
property float view_py
property float view_pz
property float x_axisx
property float x_axisy
property float x_axisz
property float y_axisx
property float y_axisy
property float y_axisz
property float z_axisx
property float z_axisy
property float z_axisz
property float focal
property float scalex
property float scaley
property float centerx
property float centery
property int viewportx
property int viewporty
property float k1
property float k2
end_header
1.8987596 0.84783548 2.9350901
1.9099804 0.84920061 2.9384687
2.0058696 0.8517881 2.9310756
1.9872144 0.073869117 2.9482322
1.9719445 0.85482943 2.9493546
1.9289165 0.073820084 2.9544163
2.0001059 0.074044831 2.954016
0.2014939 0.77482146 2.9588552
0.20097117 0.78085536 2.9513493
1.8944008 0.84501553 2.9570301
1.9039327 0.84560621 2.9577804
1.9832919 0.85618067 2.9525142
2.0106301 0.85730946 2.9517355
1.9411421 0.89685321 2.9551167
1.9636251 0.07420893 2.9666374
2.018218 0.074411593 2.9674144
2.0540853 0.074522145 2.9665031
0.20193163 0.72396755 2.9640303
1.9485341 0.074257508 2.970865
1.957248 0.074277446 2.9705353
2.0491445 0.074641496 2.9726362
0.21161173 0.22861737 2.9768152
0.21143235 0.24470064 2.9744704
0.20286241 0.69888681 2.9770422
0.20267783 0.70636332 2.9745228
0.19438928 0.79489267 2.9739828
0.21221809 0.098601729 2.9843137
0.21220082 0.11084318 2.9841347
0.21194996 0.2126725 2.9814107
0.19516039 0.78990865 2.9856198
1.9329731 0.85481912 2.9887443
0.21315706 0.066224955 2.9974222
0.21307038 0.086697146 2.9962783
0.21284965 0.17261808 2.9937165
0.21285746 0.18901032 2.9939737
0.21285988 0.20539369 2.9941642
0.2043425 0.59765971 2.9962852
0.20410712 0.60514081 2.9930146
0.20431764 0.67118859 2.997669
0.19612268 0.70385218 2.9981987
0.19617787 0.73676902 2.9998431
0.19596624 0.74822861 2.9968963
1.9436473 0.85586584 2.9910357
0.20495714 0.47640434 3.0026157
0.20480923 0.48425817 3.0006111
0.19699219 0.63304991 3.0097456
0.19684596 0.64899325 3.0078974
0.20471424 0.65200442 3.0030119
0.19654571 0.66849124 3.0037892
0.20449714 0.66359305 3.0001125
0.19650804 0.6806547 3.0035093
0.19626114 0.71253216 3.0005209
0.19633591 0.76192141 3.0028646
1.9318718 0.84969062 3.0019093
0.20643979 0.066706285 3.0191855
2.0963895 0.084103271 3.0142157
0.20587441 0.34669232 3.0136707
0.20615402 0.42142618 3.0190673
0.19778869 0.50778264 3.0190468
0.19767661 0.52809864 3.0177763
0.19752686 0.54828954 3.0159378
0.19738388 0.56846738 3.0142126
0.19735016 0.58894348 3.0141678
0.19721138 0.60908455 3.0125215
0.19704717 0.62501073 3.0103931
2.0150442 0.86511964 3.0146706
2.1214941 0.86245155 3.0173278
0.20671368 0.07506863 3.0232317
0.20677398 0.091641627 3.0241854
0.20675127 0.11232165 3.0239558
0.20672219 0.12471686 3.0236015
0.20683809 0.14962308 3.0254698
0.20673777 0.16610032 3.0241251
0.20680372 0.19926313 3.0253868
0.19854541 0.45591649 3.0295227
0.19850603 0.46824056 3.0291686
0.19821842 0.48822045 3.0251904
0.19011714 0.57137465 3.0296001
0.18992749 0.674101 3.0290101
0.18557644 0.68983018 3.0258715
0.18688004 0.71294767 3.0252829
0.18965384 0.73089439 3.0260422
0.18960345 0.74307424 3.0255387
0.18976724 0.77261406 3.0288651
2.0349908 0.86825746 3.0233068
2.0907123 0.86370367 3.0286639
0.19947912 0.15863651 3.0395615
0.19937965 0.17102684 3.0381424
0.19943982 0.18355237 3.0391691
0.19076319 0.49861491 3.0382836
0.19062182 0.51068604 3.0362897
0.19053346 0.53117245 3.035327
0.1903064 0.55124146 3.0321572
0.19021621 0.57167143 3.0311842
0.19024125 0.59244192 3.0320599
0.19024397 0.60900468 3.0324898
0.19032423 0.62996459 3.0342617
0.19025406 0.65042621 3.0336342
0.18195343 0.67104644 3.0337601
0.19006175 0.66217405 3.0308573
0.1738922 0.70505077 3.0383635
0.18175669 0.71166742 3.0314791
0.1996692 0.075535074 3.0419877
0.19968466 0.088029094 3.0422752
2.1112337 0.085037634 3.0492277
0.19975358 0.11304747 3.0434518
0.19980194 0.12973568 3.0442894
0.19482924 0.14891818 3.0448577
0.19149928 0.17141837 3.0450234
0.19565219 0.18806767 3.045032
0.19969943 0.20460783 3.0433326
0.1910883 0.47036386 3.0428758
0.19093972 0.48661447 3.0408435
0.18283641 0.54954273 3.0455997
0.18254083 0.5694201 3.0411296
0.1827113 0.59073478 3.0444555
0.18266873 0.61136901 3.0442295
0.1828627 0.62865412 3.0478644
0.18262009 0.6485821 3.0443058
0.17416695 0.69371152 3.0428724
1.5088352 0.93398112 3.0479584
0.1920817 0.11761535 3.0539272
0.19199823 0.1300948 3.0526726
0.1918871 0.19263767 3.0513916
0.19197366 0.20107739 3.0528517
2.1304114 0.86448109 3.0587275
0.17534396 0.67750984 3.0629857
0.1751768 0.68521267 3.0602603
2.117559 0.86622411 3.0683696
2.1246841 0.86563373 3.0645566
2.0711217 0.87329036 3.0706413
2.1496408 0.86879438 3.0722651
2.1639626 0.86247933 3.0793605
0.18558379 0.15257733 3.0851333
0.18559578 0.17791566 3.0855353
1.9962049 0.87421751 3.0874205
2.0073562 0.8753438 3.0899916
2.0146763 0.87479699 3.0866179
0.18610497 0.14453983 3.0937617
0.18609963 0.18686442 3.0940099
0.17705561 0.67568511 3.0927665
2.1287296 0.8743338 3.0988882
0.18699862 0.13672726 3.1086023
0.18649718 0.19574742 3.1007156
0.17823882 0.67170572 3.1132874
2.1027286 0.87793142 3.1183147
2.1452239 0.87062192 3.1164579
2.1791811 0.86330575 3.1160433
2.1852801 0.86227238 3.1105022
2.0444903 0.88398045 3.1176393
2.0706372 0.88404655 3.1133201
0.17923062 0.59856516 3.1288397
2.0958903 0.87870771 3.1226847
0.1796374 0.66413116 3.137476
0.17994624 0.57093835 3.1406837
0.18032569 0.63230109 3.1487119
0.17987755 0.65216279 3.1413736
0.1801945 0.64472401 3.1467199
2.2074454 0.86222672 3.1428587
2.0992982 0.88380402 3.1424389
0.18060218 0.56010872 3.1518755
2.1160362 0.87837654 3.1534545
2.1747458 0.87201393 3.1528847
2.0032721 0.88389331 3.1588318
2.1603973 0.87333298 3.1611018
1.9972162 0.88508695 3.1644454
0.18205927 0.55595088 3.1771843
2.1786764 0.86828798 3.1739016
2.1927872 0.87037331 3.179811
2.2022183 0.87059164 3.1788523
0.18242002 0.54835838 3.1833062
0.1832861 0.54222655 3.1982727
2.2047517 0.86619908 3.1979008
2.127516 0.89943188 3.1997576
2.2280817 0.58866894 3.2050996
2.2304854 0.61606097 3.2072272
2.2314582 0.62525254 3.2081671
2.2343762 0.67074287 3.2099357
2.2429712 0.68850642 3.2066939
2.2351422 0.8050369 3.2024407
2.2433891 0.42952442 3.2193215
0.18433465 0.53654331 3.2164309
2.2350554 0.55029392 3.2170405
2.2321227 0.57188553 3.2117834
2.2282596 0.59108055 3.2199056
2.231303 0.5805977 3.2101772
2.2281246 0.60893536 3.2188313
2.2331679 0.65041506 3.2142181
2.2356915 0.66219789 3.2123351
2.2299454 0.68105406 3.2176321
2.2364631 0.68478465 3.2121687
2.2249789 0.76748097 3.2198877
2.2323658 0.7893458 3.2143564
2.2345247 0.81253368 3.2159009
2.2138133 0.86079937 3.2117653
2.1439407 0.88473803 3.2107906
2.2378392 0.29595006 3.229599
2.2468493 0.40334108 3.2251897
2.2363074 0.43882367 3.2232878
2.2353146 0.45650548 3.2212191
0.18456621 0.52842098 3.2202957
2.2307522 0.57382995 3.2243657
2.2293689 0.58242446 3.2219405
2.2309883 0.64554524 3.2211251
2.2317152 0.66815543 3.2209513
2.2258797 0.7812497 3.2203009
2.2326341 0.81061918 3.2282431
2.2290504 0.099092789 3.2342744
2.2433655 0.28771043 3.2377963
2.2345674 0.30567551 3.2391758
2.2330949 0.32788616 3.236496
2.2351539 0.34164995 3.2391455
2.240335 0.35451001 3.23175
2.2405236 0.36797801 3.2316473
2.2408426 0.39491165 3.2313104
2.2409627 0.43077636 3.2303243
2.2352624 0.44935432 3.2360175
2.2368422 0.47212631 3.2375002
2.2368665 0.48559844 3.2370288
2.2304769 0.61203641 3.2369013
0.17664874 0.63716054 3.2388237
2.2297416 0.62981057 3.2349267
2.2310221 0.6211791 3.2372463
2.2284656 0.65190685 3.2318945
2.2291307 0.67007226 3.2318854
2.2251594 0.75714189 3.2357996
2.2238424 0.7701928 3.2330091
2.22721 0.79389596 3.2364244
2.2334967 0.8019293 3.2301221
2.2202542 0.83974624 3.2380083
2.113023 0.9085117 3.2383761
2.2480764 0.18044274 3.2465272
2.2436841 0.21327329 3.2445259
2.2461987 0.22969359 3.2430434
2.2500613 0.24808154 3.2483101
2.2483447 0.27036673 3.2453821
2.2372608 0.29706195 3.243295
2.2383499 0.35112482 3.2435527
2.2383265 0.36460066 3.2431495
2.2394779 0.42772451 3.242903
2.2385049 0.44101921 3.2410364
2.2348645 0.49612901 3.2484336
2.2343595 0.50952518 3.2471671
2.2351637 0.53223455 3.2474201
2.2355897 0.55036134 3.2472687
2.2360473 0.57300472 3.2469335
2.2352376 0.59081829 3.2449179
0.17710789 0.61222631 3.2466481
2.2325826 0.60361493 3.240407
2.2265487 0.6494782 3.2440879
2.2279322 0.66791546 3.2451499
2.2312093 0.67792827 3.2494428
2.2311544 0.71403164 3.2473047
2.2295237 0.72253323 3.24439
2.2302489 0.7317946 3.244904
2.2295938 0.74962693 3.242835
2.2254469 0.79649246 3.2487419
2.2314649 0.80895829 3.2416973
2.217396 0.83304101 3.2494168
2.2246425 0.8233254 3.2457087
2.2314069 0.82248509 3.2406676
2.2258952 0.099753834 3.258836
2.2318699 0.099618234 3.2529447
2.2459359 0.10886027 3.2587719
2.2518327 0.14472684 3.2524049
2.246979 0.16303697 3.2597473
2.2428286 0.18974312 3.2533557
2.2409828 0.20758662 3.250407
2.2441967 0.23041004 3.2547135
2.2456195 0.24407844 3.2565444
2.2450082 0.2710489 3.2551327
2.2417834 0.28866228 3.2500677
2.2380323 0.32993728 3.2583084
2.2393181 0.37977287 3.2588637
2.2390761 0.42485958 3.2571335
2.2386627 0.4518528 3.2556229
2.2368929 0.46952859 3.2523997
2.2361073 0.61606592 3.2598894
2.2327967 0.62870353 3.2543774
2.2282674 0.76580799 3.2549353
2.2269359 0.80607504 3.2503119
2.2192409 0.82467908 3.2527597
2.0554433 0.90187865 3.2575591
2.2475584 0.15405567 3.2606955
2.2480891 0.172143 3.2612505
2.2406111 0.19032577 3.2647655
2.2437463 0.22676955 3.2687943
2.2438021 0.2719982 3.2680464
2.24208 0.28985885 3.2651539
2.239156 0.30753848 3.2604864
2.2413187 0.34849036 3.2626481
2.2404184 0.36641356 3.2608492
2.2370601 0.41261461 3.269366
2.2363446 0.47131461 3.2663558
2.2360809 0.48483241 3.2654746
2.2374101 0.54850966 3.2648988
2.236557 0.57092977 3.2626619
2.2366824 0.59359443 3.261812
2.2369573 0.60724652 3.2615712
2.2329702 0.63585091 3.2692802
2.2312393 0.64895749 3.266048
2.2327955 0.66756004 3.2673821
2.2359045 0.70937485 3.2696867
2.2347252 0.72716326 3.2669001
2.2335272 0.75400251 3.2634943
2.2243853 0.81751454 3.2609444
2.246757 0.11839573 3.2745576
2.2478418 0.13204636 3.2760193
2.2490444 0.15477918 3.2775419
2.2473252 0.16824903 3.2748694
2.2454476 0.18168534 3.2719543
2.245636 0.23601252 3.2714005
2.2451589 0.25406253 3.2703786
2.2460351 0.26321527 3.271486
2.2404099 0.36789548 3.2755919
2.237535 0.39006278 3.2707407
2.2400095 0.38142836 3.2746284
2.2410121 0.42694867 3.2747295
2.2386272 0.45367518 3.2703342
2.2391701 0.46284765 3.2708151
2.2353346 0.49118453 3.2790618
2.2341948 0.50909132 3.2766972
2.2373395 0.56890655 3.278892
2.2383201 0.61463356 3.2782483
2.2368948 0.62787843 3.2754931
2.2358465 0.68664318 3.2708755
2.2366917 0.70053536 3.2713578
2.2333634 0.73879933 3.2793753
2.2332296 0.77064669 3.2772269
2.2295389 0.78756851 3.2706363
2.2229302 0.82032841 3.2738786
2.2438865 0.11418663 3.2851427
0.18847312 0.17132349 3.2831082
0.1887842 0.18060361 3.2886138
2.2471156 0.19165115 3.2890391
2.2460644 0.20974207 3.2872326
2.246464 0.23251015 3.2874584
2.2478757 0.26904562 3.2888708
2.2456493 0.28695369 3.285238
2.24438 0.30042052 3.2830853
2.2377 0.41895753 3.285008
2.2406459 0.42861435 3.2890594
2.2388165 0.45555809 3.2854724
2.2392693 0.46929932 3.2856672
2.2380307 0.48268226 3.28336
2.2376781 0.532619 3.2809227
2.2379959 0.55543107 3.2804465
2.2398732 0.59230572 3.2815969
2.2411208 0.58352846 3.2838438
2.2404268 0.60155642 3.2819889
2.235054 0.67096013 3.2856948
0.17926297 0.69144648 3.2879508
2.2368379 0.68975186 3.2873473
2.2372079 0.70812023 3.2868824
2.2352796 0.73031265 3.2827344
2.2355843 0.75321639 3.2818201
2.2295308 0.79079318 3.2857289
2.2183557 0.83113557 3.2816508
2.060447 0.89898336 3.2818818
2.2489941 0.15085258 3.2922964
2.2505093 0.16916975 3.2943125
0.18940739 0.19022685 3.2995744
2.2505331 0.18283413 3.2941766
2.2450647 0.33366388 3.298228
2.2431421 0.35161072 3.2949438
2.2444024 0.37004858 3.2963226
2.2429719 0.38804105 3.2937119
2.2416272 0.43791142 3.2902122
2.2392967 0.5214746 3.2988267
2.2410011 0.55844724 3.2998643
2.2410405 0.57674521 3.2991385
2.241117 0.59048343 3.2986426
2.2418714 0.60440165 3.2991323
2.2383349 0.63084728 3.292614
0.17946437 0.68324202 3.2914393
2.2357645 0.72888541 3.298836
2.2358556 0.74723673 3.2979007
2.2354972 0.77001125 3.2959836
2.2271736 0.82527715 3.2953479
2.1905406 0.86193901 3.299403
0.18991072 0.13642617 3.307965
0.18995689 0.14551258 3.3088291
2.2494521 0.14692487 3.3078952
2.2507055 0.15615295 3.3096461
2.2510827 0.17447454 3.3099897
2.2497852 0.18351644 3.3079622
-2.2002873 0.219661 3.307924
2.2485478 0.23824005 3.3053215
2.2500372 0.22925438 3.307668
2.2491684 0.25201488 3.3059969
2.2486508 0.26566449 3.3049827
2.2464347 0.28822339 3.3012655
2.2462857 0.301898 3.3007572
2.2461011 0.3201282 3.3000779
2.2406449 0.43036383 3.3040216
2.2413979 0.48995379 3.3031306
2.2403078 0.50799799 3.3008444
2.2422709 0.5313164 3.302861
0.18054256 0.54278105 3.3079827
2.2418523 0.54493701 3.3016891
2.2415798 0.56773782 3.3003306
2.2390833 0.61529773 3.3096972
2.2388296 0.62898743 3.308672
2.2396872 0.67969584 3.3074145
2.2392149 0.6933136 3.3059821
2.2317791 0.71680844 3.3089106
2.2312589 0.73040807 3.307363
2.2301748 0.74381715 3.3049607
2.2326193 0.77218664 3.3069501
2.2317877 0.79025716 3.3045738
2.2298825 0.80793387 3.300575
2.2247162 0.83696336 3.3063765
2.1846828 0.86324644 3.3059978
0.19027704 0.20923901 3.3149283
2.2460008 0.25727025 3.3162122
2.2454731 0.27095169 3.315176
2.2457645 0.28931585 3.3152461
2.2471371 0.30782887 3.3168921
2.2463157 0.3397969 3.3149424
2.2452526 0.35337794 3.3130295
2.2438939 0.36689776 3.310667
2.2398753 0.41362584 3.3184948
2.2391949 0.42267415 3.3172102
2.238858 0.45013139 3.3158467
0.18072036 0.52974927 3.3109641
2.239759 0.52372009 3.3145902
2.2435317 0.57055956 3.3183296
2.241539 0.59301108 3.3143792
2.2344806 0.6165601 3.3180497
2.2409005 0.60661608 3.3128138
2.2349997 0.62589777 3.3183956
2.2353246 0.64438045 3.3180032
2.2405367 0.64782578 3.3103092
2.2412448 0.66639507 3.3104343
2.2357464 0.69508553 3.3160577
2.2327118 0.707923 3.3108029
2.2313108 0.78414071 3.3197565
2.2317274 0.81194407 3.3186412
2.229455 0.82493103 3.3143544
2.2227409 0.84891045 3.3181961
-2.2187479 -0.045147717 3.3221321
0.1817742 0.11892503 3.3246272
2.252238 0.12932611 3.3271701
2.2525697 0.15232351 3.3274395
2.2514789 0.21196437 3.325073
2.2447631 0.27657607 3.3290961
2.2437901 0.29024601 3.3273783
2.2453623 0.30884749 3.3293338
2.2448821 0.32717463 3.3282127
2.2423661 0.34977618 3.3239272
2.2431555 0.36828032 3.3246393
2.2361851 0.43304265 3.3275924
2.234365 0.451074 3.3243022
2.2362783 0.46066001 3.3268585
2.2396564 0.53506523 3.3292651
2.2404389 0.56290287 3.3293278
2.2376983 0.58982688 3.3240731
2.2371628 0.63570696 3.3211813
2.2391224 0.65468669 3.3232045
2.239398 0.6731925 3.32269
2.2401583 0.66420531 3.3242877
2.2357001 0.68729687 3.3241205
2.2313566 0.71963465 3.3235726
2.2311029 0.73337579 3.3224247
2.2309713 0.74715787 3.3214421
2.2316129 0.77502835 3.3207681
2.2241819 0.84023476 3.3209708
2.2499876 0.17581928 3.3384373
2.2496707 0.18501145 3.3378525
2.2497818 0.2126727 3.3376429
2.2488308 0.22640184 3.3360205
2.239572 0.33235207 3.3353477
2.2412779 0.32338488 3.3381026
2.2381351 0.3413462 3.3329883
2.2399478 0.36005244 3.3352485
2.2409363 0.37403959 3.3363717
2.2425995 0.38815597 3.3384891
2.2409394 0.41091645 3.3353682
2.2403355 0.42462996 3.3340628
2.2365963 0.46628159 3.334795
2.2354074 0.59166229 3.3359363
2.23402 0.60052353 3.3334596
2.2334988 0.63267636 3.3312182
2.2354825 0.64708918 3.3335297
2.2351391 0.67468911 3.3316534
2.2349181 0.68385452 3.3308527
2.2301526 0.70372957 3.3381472
2.2305424 0.72698361 3.337491
2.2325935 0.74617457 3.3395371
2.2334151 0.77887309 3.3388855
2.2290697 0.79122543 3.3315325
2.2528372 0.13912232 3.3430703
2.2522717 0.15292993 3.3420916
2.2465832 0.17627576 3.3485298
2.2512705 0.16669604 3.3404531
2.2458014 0.19469231 3.3471317
2.2455726 0.20853055 3.3466012
2.2455611 0.22700423 3.3463137
2.2431543 0.24521759 3.3424234
2.2438498 0.27298594 3.3429766
2.2444117 0.2869041 3.3435524
2.2427111 0.30975226 3.3405418
2.2364237 0.35173321 3.3454301
2.2374582 0.36113855 3.3467574
2.2367201 0.43031621 3.3437655
2.2353296 0.44389981 3.3412619
2.2338529 0.46763995 3.3459675
2.2363501 0.48567277 3.3414388
2.2378373 0.51835161 3.3425202
2.2400913 0.52812725 3.3455522
2.2397821 0.55581117 3.3440151
2.2388475 0.57407594 3.3418643
2.235754 0.58835709 3.3443317
2.2330403 0.60738283 3.3471546
2.2323327 0.63033617 3.3450527
0.17314869 0.66657537 3.3424134
2.2330363 0.67685151 3.3438983
2.2322845 0.69051278 3.3420663
2.2347479 0.76543367 3.3417034
2.2276392 0.78937495 3.3451681
2.2500782 0.1117542 3.3543751
2.2497005 0.13024542 3.3536618
2.2507968 0.1210494 3.3553779
2.2480023 0.16713911 3.3507569
2.2432933 0.22771288 3.3581679
2.2426891 0.24617925 3.3569696
2.243433 0.26479441 3.3577704
0.174233 0.35865781 3.3571622
2.2358091 0.37164414 3.3593731
2.2400029 0.37080249 3.3503432
2.2422824 0.38507518 3.3534021
2.2423718 0.41750941 3.3526447
2.233413 0.43146211 3.354125
2.2318163 0.44504139 3.3513055
2.2335124 0.47317356 3.3529816
2.2344675 0.48727769 3.3539567
2.2346885 0.51050061 3.3534844
2.2355919 0.53389215 3.3539982
2.2349682 0.55228174 3.3523512
2.236094 0.57111192 3.3533063
2.2351358 0.58477408 3.3512945
2.2312372 0.63265556 3.3588743
2.229569 0.68790352 3.3536985
2.2285638 0.71544135 3.3507478
2.2298708 0.72979295 3.3519721
2.2328553 0.74936962 3.3554473
2.2319345 0.76765525 3.3530028
2.2262058 0.79216796 3.3586025
2.2309377 0.78125113 3.3506877
2.2249737 0.80568773 3.3558993
0.1837799 0.12943462 3.3614597
2.2475657 0.15387133 3.3655157
2.250278 0.14011286 3.3697224
0.18416858 0.16657566 3.3688309
2.2462749 0.17233711 3.363379
2.2452691 0.19545057 3.3615887
2.2446229 0.20930263 3.3604319
2.2402492 0.23299325 3.3688548
2.2400482 0.25155589 3.3682573
2.2398148 0.27475691 3.3675029
2.240624 0.26091465 3.368969
2.2373245 0.3347742 3.3625333
2.2362032 0.34852046 3.3605256
2.2369928 0.36256182 3.3613849
2.2381961 0.38132501 3.3627343
2.2410152 0.40039685 3.3664916
2.2292638 0.47424147 3.3619893
2.2286658 0.48339733 3.3607821
2.230798 0.49315172 3.3636959
2.2339768 0.50781387 3.3680229
2.2351065 0.52668858 3.3690691
2.2354805 0.55936712 3.3684101
2.2341928 0.57300305 3.3659129
2.2334971 0.59143353 3.3641019
2.2324133 0.61439168 3.3614752
2.2329206 0.62383217 3.3618324
2.2331295 0.64714384 3.3610897
2.2281053 0.67168945 3.3679678
2.2335045 0.66120815 3.3610001
2.2274575 0.69478881 3.3658433
2.2275028 0.71343619 3.3649631
2.2308202 0.75182199 3.3679893
2.2235022 0.83188832 3.3679299
2.1813118 0.85801208 3.3648243
2.2146456 0.85075414 3.3690491
2.2431552 0.11233505 3.3745914
0.18435545 0.13906616 3.3720701
2.244082 0.12634577 3.3758807
2.2509589 0.12620763 3.3708653
2.2462888 0.15442148 3.3789561
2.2441015 0.17288557 3.3754611
2.2413957 0.19127464 3.3711605
2.2414486 0.20522527 3.3710613
2.2378569 0.29430354 3.3796268
2.2374835 0.30823371 3.3787885
2.2375231 0.33153844 3.3783612
2.2383668 0.35031071 3.3792222
0.17502555 0.37411869 3.3726876
2.2380769 0.368909 3.3783422
2.2374086 0.38743994 3.3768649
2.2396631 0.41115162 3.3796587
2.236928 0.42928448 3.3749981
2.2305281 0.45783663 3.3799994
2.2282603 0.47601163 3.3759732
2.2303543 0.46712992 3.3794475
2.2279706 0.48992914 3.3750792
2.2295737 0.50426936 3.3770468
2.2303128 0.51376528 3.3778486
2.2370219 0.54577649 3.3712742
2.2318156 0.59345853 3.3771224
2.2333074 0.63122106 3.3777897
2.2296205 0.65349448 3.3711438
2.2317266 0.644777 3.3747649
2.2299538 0.66291934 3.3712127
2.2248983 0.70625025 3.3771536
2.2271094 0.77711058 3.3767583
2.2243671 0.78549683 3.3720536
2.2247944 0.8230269 3.3704715
2.1779325 0.86035985 3.3755333
2.2121789 0.093991645 3.3895156
0.17569351 0.11174911 3.3828118
2.2403502 0.12199383 3.3857093
2.2419338 0.15476523 3.387821
2.241678 0.1734205 3.3872385
2.240242 0.18730697 3.3849027
2.2422144 0.24817738 3.3870432
2.2417078 0.26679578 3.3859663
2.2384877 0.28040007 3.3808432
2.2340307 0.37445635 3.3876219
2.234292 0.38851678 3.3876703
2.2352948 0.40739045 3.3887084
2.2407439 0.40201664 3.3815463
2.2329741 0.43498698 3.3844051
2.2313764 0.44867757 3.3815689
2.2337217 0.52856565 3.3825293
2.2331581 0.54244292 3.3811653
2.2287469 0.6372605 3.3863273
2.228512 0.65123487 3.3853402
2.2286353 0.7261585 3.3818822
2.2281566 0.74004012 3.380414
2.2308321 0.75498259 3.3837237
2.2247212 0.78893697 3.3883865
2.2236233 0.81199837 3.3853416
2.1741173 0.86255521 3.3856275
2.2227619 0.10338073 3.3901012
2.2390916 0.16926312 3.3988914
0.17636465 0.23296511 3.3966854
2.2389939 0.25354177 3.3976207
2.2376485 0.26742923 3.3953409
2.2292223 0.49226207 3.3925993
2.2319276 0.51161414 3.3961039
2.2334921 0.52604103 3.3980062
2.2350647 0.55457532 3.3993874
2.2304575 0.5721693 3.3916497
2.2300434 0.58143002 3.3906527
2.232192 0.61480457 3.3925867
0.16676624 0.68699974 3.3986335
2.2260723 0.69082683 3.3956332
0.16652697 0.71379805 3.3944111
2.2251613 0.7046209 3.3935554
0.16673812 0.72861314 3.3990631
2.2253084 0.73282671 3.3923545
2.2266433 0.74265838 3.3939035
2.2305274 0.7533623 3.3993385
2.2294717 0.76711237 3.3969584
2.228133 0.78074855 3.3941298
0.17696713 0.12188238 3.4074459
2.2399406 0.15995823 3.40028
2.2429934 0.22584914 3.4041314
2.2361977 0.25428927 3.4089839
2.2417064 0.24447249 3.4018953
2.2321267 0.27257755 3.4024532
2.2346482 0.28696775 3.4060588
2.2368579 0.32483119 3.4087126
2.2355371 0.40914828 3.4047184
2.2341812 0.42297652 3.4022713
0.16714552 0.44687337 3.401232
2.2342947 0.44176748 3.4019189
2.2281673 0.48470825 3.4070072
2.2284617 0.50827157 3.4067006
2.2301359 0.51806027 3.4089515
2.2366526 0.53618008 3.4024947
2.2333908 0.55063188 3.4048858
2.2299733 0.57445908 3.4066675
2.2287438 0.58354336 3.4044216
2.2305541 0.61224294 3.4060605
2.2309561 0.62646735 3.4060836
2.229208 0.65418577 3.4021766
2.2301254 0.64034557 3.4042058
2.2237215 0.68831009 3.4081233
2.2250342 0.73112726 3.4080615
2.2259388 0.75028551 3.4084744
2.224369 0.78744119 3.4040165
-0.98826617 1.7242872 3.4082682
0.17756698 0.13165031 3.4190779
2.2377646 0.16987568 3.412488
2.2382784 0.18871558 3.4130671
2.2416759 0.21254131 3.4179697
2.2349727 0.24998574 3.4150333
2.2322867 0.26433155 3.4185543
2.2329717 0.28325015 3.4192886
2.2381065 0.30150998 3.4110842
0.16786489 0.33210033 3.4140263
2.2335756 0.35869718 3.4187143
2.2331729 0.37276095 3.4177723
2.2326415 0.39621663 3.4163883
2.2310996 0.41005883 3.4136615
2.2298021 0.43333432 3.4110417
0.1678623 0.48613206 3.4165528
2.2319517 0.53260434 3.4112477
2.2319889 0.54673445 3.4108038
2.227797 0.58576733 3.4188251
2.2289131 0.61438525 3.4194188
2.2270169 0.62801218 3.4159157
2.2268867 0.64684105 3.4149098
2.2254913 0.69828486 3.4103947
2.2228975 0.7571758 3.4195485
2.2275693 0.76498741 3.4102256
2.2275515 0.12807259 3.4286702
2.2363899 0.17048639 3.4261024
2.2366488 0.21296071 3.4260077
2.2361956 0.24592969 3.4248507
0.16857786 0.29132131 3.4280052
0.16838834 0.30971476 3.4243827
2.2352827 0.3495428 3.4215426
2.2304215 0.41167155 3.4284458
2.2305474 0.43059304 3.428143
2.2305186 0.44475874 3.4277101
2.2294974 0.4870528 3.4248831
2.2280383 0.50089073 3.4221904
2.2306581 0.51092863 3.4259183
2.2292325 0.52476668 3.4232516
2.2296362 0.55319452 3.4228847
2.2265153 0.5724932 3.425354
2.230335 0.59588206 3.4223619
2.2256165 0.65395784 3.4287229
2.2247257 0.66315997 3.4269326
2.223269 0.68636888 3.423614
2.2239008 0.70075542 3.4239268
2.2232928 0.73366576 3.4213707
2.222928 0.74772984 3.4200866
2.2264225 0.77731842 3.423975
2.2243636 0.786062 3.4202843
2.2339711 0.18995 3.437994
2.2345431 0.21839345 3.4385324
2.234478 0.2325827 3.4382396
2.2345302 0.24678798 3.4381166
0.1687313 0.28220254 3.4310186
2.234158 0.28460166 3.4369359
2.232137 0.30798155 3.4333935
2.2317152 0.32683074 3.4323773
2.2345572 0.36510906 3.4359574
2.2318172 0.39302239 3.4310699
2.2273259 0.41758749 3.4394693
2.2349515 0.45510978 3.4342723
2.2338042 0.46906847 3.4320903
2.2273216 0.48864573 3.4374652
2.2257757 0.51198 3.434329
2.2274311 0.5218361 3.4365804
2.2251964 0.54024428 3.4324853
2.2255852 0.58767617 3.4313712
2.2265503 0.61634576 3.4317498
2.2267344 0.63060445 3.4314528
2.221669 0.64609671 3.439085
2.2202439 0.69310814 3.4347856
2.2218599 0.70784867 3.4366271
2.222249 0.76968378 3.4341505
0.18678392 1.7860951 3.4319935
2.2295382 0.13347279 3.4475868
2.2361133 0.2090749 3.4410753
2.2306204 0.23791569 3.448128
2.2301872 0.25210029 3.4472499
0.16944732 0.26926035 3.4454494
2.2304139 0.27584589 3.4472308
2.231075 0.29016414 3.4480147
2.2289958 0.30885687 3.4444547
2.2285032 0.32774758 3.4433296
2.2303708 0.35174334 3.4457381
2.2296147 0.36110881 3.4443634
2.2330377 0.37116235 3.4494541
2.2326376 0.39483774 3.4482818
2.2278643 0.40821126 3.4405432
2.2312136 0.43729928 3.4449897
2.2335973 0.45202082 3.4482875
2.2327001 0.47083217 3.4463558
2.2234142 0.51362264 3.4467006
2.2242556 0.52331924 3.4477012
2.2249169 0.59476578 3.4462161
2.2247257 0.60896856 3.4453709
2.2220101 0.63670325 3.4400101
0.15959369 0.71498466 3.4446001
2.2200305 0.71506613 3.4497459
0.15981339 0.72538048 3.4495814
2.2192049 0.73384303 3.4475482
2.2206249 0.74860287 3.4490535
2.2204335 0.7628293 3.448034
2.219599 0.79111189 3.445235
2.2105887 0.80082232 3.4469593
0.16977856 0.11399518 3.4509089
2.2318325 0.14785035 3.4510257
2.2337155 0.1907354 3.4535229
2.2346375 0.20507261 3.4547863
0.16980672 0.25566998 3.4526169
2.2284882 0.29582635 3.4599366
2.225275 0.3096593 3.4546809
2.2261939 0.32880929 3.4557533
2.2282205 0.34814504 3.4585261
2.2266762 0.4144935 3.4546061
2.227921 0.43852025 3.4559298
2.2282956 0.44811344 3.4562557
2.2272108 0.4954699 3.4531956
2.2313137 0.48685017 3.4598608
2.2259204 0.50469226 3.4508958
2.2233624 0.60643804 3.4596043
2.2224188 0.63001442 3.4571972
2.2201869 0.65796286 3.452543
2.2210915 0.69634885 3.45228
2.2208307 0.70579553 3.4514372
2.2208188 0.72484839 3.4505215
2.216188 0.78852648 3.4564755
2.198257 0.8128351 3.4598649
2.1835594 0.82045877 3.4525831
0.16940758 0.95226216 3.4588332
0.17841473 1.7677883 3.4522781
0.17841056 1.7959445 3.4510105
2.23313 0.17241997 3.4688449
2.232523 0.18667918 3.467752
2.230664 0.25799653 3.4639392
2.2309427 0.27232504 3.4641514
2.2307978 0.28660274 3.4636943
2.2248836 0.33479863 3.4697287
2.2245486 0.34429255 3.4690163
2.2329693 0.36796758 3.4655106
2.2258453 0.44476697 3.4687114
2.2309456 0.45817724 3.460114
2.2322416 0.46797985 3.4618604
2.2259738 0.49254391 3.467567
0.16088906 0.50759912 3.4679031
2.2230597 0.51097429 3.4624348
0.16077898 0.52619016 3.4659028
2.2169983 0.53566194 3.4684241
2.2222416 0.52508974 3.4607055
0.16094585 0.55043304 3.4699948
2.216876 0.54518485 3.4679191
2.2162652 0.56890917 3.4661489
0.16066082 0.65353489 3.4661276
2.217272 0.65993166 3.4642539
0.16059397 0.66272044 3.4649005
2.2167876 0.6741181 3.4628868
2.2174864 0.69343662 3.463146
2.2191935 0.7274403 3.4642837
2.2183049 0.75582469 3.4615011
2.2179933 0.76527578 3.4605341
0.17112935 0.21483418 3.4791465
2.2283225 0.22058989 3.4769349
2.2272935 0.25393602 3.4748731
2.2301631 0.29731941 3.478682
2.2264192 0.31114864 3.4725754
2.2265522 0.32549682 3.4725208
2.229707 0.35465741 3.4768867
2.2293727 0.36895293 3.4760604
0.16129588 0.4376432 3.4753666
2.2204452 0.52692693 3.4741371
0.16097149 0.56000054 3.4707477
0.16122098 0.59884655 3.4769588
2.2208104 0.58921564 3.472595
0.16116072 0.60811365 3.4758646
2.2212346 0.61325502 3.4723709
2.221442 0.62288439 3.4723284
2.2158647 0.6527788 3.4788051
2.2156653 0.67189705 3.4776993
2.2160828 0.68161398 3.4779496
2.2144363 0.71464807 3.4738772
2.2142124 0.72894996 3.472863
2.2181969 0.75906008 3.4777474
2.217916 0.77336144 3.4765878
2.2165265 0.79206109 3.4734216
2.2079346 0.806817 3.475646
-1.0803378 1.5159295 3.4750645
0.17148693 0.12467943 3.4857714
0.17149536 0.17237374 3.4862494
2.2303793 0.17294677 3.480685
0.17149672 0.18668249 3.4863882
2.2307138 0.18732822 3.4810615
0.1712506 0.20069981 3.4814904
2.2247653 0.23077358 3.4874542
2.2244759 0.24512145 3.4868071
2.2319455 0.26882887 3.4819355
2.2312589 0.2878924 3.4805565
2.2259183 0.3316018 3.487668
2.2260191 0.34600535 3.4875493
2.226023 0.3747814 3.4869604
2.2254095 0.4130348 3.4851239
0.16154069 0.42879421 3.4804897
2.226202 0.42277452 3.4861357
2.2271161 0.46613479 3.4864459
2.2274833 0.49020147 3.4863415
2.2183461 0.53830814 3.4868791
2.2168887 0.55714208 3.4839556
0.16157736 0.57162374 3.4840457
2.2168012 0.57151079 3.4833298
0.16155407 0.5858115 3.483849
2.2194774 0.6154229 3.485991
2.2183542 0.62471163 3.4838586
2.2119365 0.65445495 3.4890721
2.2140038 0.66324854 3.4837058
2.212534 0.71233141 3.4875782
2.2130439 0.72211444 3.4879513
0.15200561 0.76642632 3.4873202
2.213645 0.79446971 3.4854088
0.15169561 1.8090756 3.4857731
2.2320931 0.1690172 3.4996634
2.2318034 0.18822797 3.4990177
2.2321458 0.20749456 3.4993453
2.2274032 0.22144942 3.4917207
2.2277846 0.25988501 3.4918034
2.2225263 0.2603941 3.4998515
2.2278814 0.29829562 3.4913521
0.16203795 0.36331582 3.4901557
2.229393 0.38495517 3.4920435
2.2300792 0.39468291 3.4929049
2.2257051 0.40917853 3.4938691
2.2204432 0.44752923 3.4928191
2.2245014 0.46278763 3.4988396
2.2230606 0.51059061 3.4952035
2.2222395 0.52482677 3.4934683
2.2229798 0.60677385 3.4918637
2.2156756 0.63630068 3.4957414
0.15257427 0.64517391 3.4974418
2.2126875 0.64505988 3.4906409
2.2150483 0.69388592 3.4923952
0.15240352 0.73028421 3.4955416
2.2152569 0.73246503 3.4910076
0.15223758 0.74378145 3.4920731
2.2166493 0.74737996 3.4925308
0.1425128 1.7940466 3.4943194
0.14269806 1.8106678 3.4982862
2.2267342 0.23197781 3.5068858
2.2239826 0.25094023 3.5022864
2.2278693 0.27066144 3.5081451
0.16277218 0.29786113 3.5050912
2.2265277 0.28013399 3.5058808
0.16280943 0.30751735 3.506016
2.2268064 0.31871605 3.505681
2.2262545 0.33308807 3.5045464
2.226084 0.3475135 3.5040026
2.2254117 0.37630066 3.5023534
2.2250359 0.38586619 3.5015533
2.2251897 0.40515238 3.5013638
2.2192321 0.44922984 3.5073524
2.2267053 0.47288242 3.502054
2.2269614 0.4922117 3.5019171
2.2267435 0.5018 3.5012941
2.221199 0.53169 3.5081594
2.21962 0.54095936 3.5053573
0.15301171 0.57521021 3.5059042
2.2209201 0.57023543 3.5064723
0.15289873 0.62740469 3.5044634
2.2187893 0.62755108 3.5010343
0.15284932 0.66068494 3.5040922
2.213738 0.74965513 3.5045502
2.2150688 0.769449 3.5057416
2.2147689 0.78384358 3.5045564
0.13342966 1.7474151 3.5076978
0.14284113 1.7552687 3.5039742
0.13350737 1.8057356 3.5076585
0.16336368 0.11615052 3.516253
2.2290828 0.15504974 3.5114076
2.2301743 0.16960274 3.5130033
2.2308457 0.18413502 3.5139251
2.2210779 0.24687478 3.514183
0.16336498 0.2748946 3.5176003
2.2230947 0.26642713 3.5171137
0.16321784 0.28906459 3.5145941
2.2242863 0.31973967 3.5181565
2.2231343 0.33406627 3.5160689
2.2218802 0.35802272 3.5136211
2.2219353 0.37252045 3.5134149
2.2234392 0.39209682 3.5153885
2.2216518 0.41109312 3.5121224
2.2233067 0.46938562 3.5133038
0.15353371 0.49070191 3.5161459
2.2272496 0.48473537 3.519156
0.15353039 0.50990093 3.5164418
2.2243333 0.51310438 3.5137064
0.15341583 0.52872699 3.5141909
2.2240949 0.52271622 3.5130398
0.15328926 0.59064448 3.5125895
0.17204218 0.97663951 3.5129907
0.18152583 0.98572648 3.5115416
0.14305744 1.528723 3.5136039
0.16382034 0.12612279 3.5261567
2.2274604 0.1507723 3.5253384
0.16394259 0.17449079 3.5291052
2.2284708 0.17020983 3.5267763
0.16387406 0.18889476 3.527739
2.2294044 0.18481621 3.5281205
0.1637993 0.20809969 3.526288
0.16368444 0.22723202 3.5239868
0.16360454 0.24639183 3.5224552
0.16348642 0.26065648 3.5200591
2.2261372 0.28613943 3.5216489
2.2266316 0.30072099 3.5222025
0.15388341 0.42441133 3.5229609
2.2184157 0.46555284 3.5222464
0.14430724 0.68468851 3.5296752
0.14419664 0.71304238 3.5276484
0.14409305 0.72695684 3.5254545
0.14396867 0.75035381 3.5229869
0.15338299 1.0181334 3.5250051
0.16295482 1.0179408 3.5243719
0.15331507 1.0272768 3.5236642
0.1629933 1.0277801 3.5254297
0.1627731 1.2181097 3.52458
0.15311715 1.2271678 3.523201
0.1628889 1.2381618 3.5274098
0.15324506 1.2473727 3.5264599
0.14370869 1.4589332 3.5297952
0.164102 0.13600381 3.5322893
0.16407067 0.1504696 3.531702
0.1547513 0.17501979 3.5397654
0.16400187 0.16489561 3.5303142
0.15467036 0.18944597 3.538022
0.14447361 0.59867555 3.5317843
0.13505326 0.60935163 3.53795
0.14449851 0.6132499 3.5327122
0.13506922 0.63357842 3.5389085
0.14450803 0.63258195 3.5333769
0.13501301 0.65263218 3.5378718
0.14443305 0.65153897 3.5319772
0.13496229 0.67169595 3.5369859
0.14436904 0.67052513 3.5308528
0.16331816 1.0394465 3.5326958
0.18263817 1.0398766 3.5342343
0.16340965 1.0496522 3.5348997
0.1534251 1.2584392 3.5307608
0.16316593 1.2546799 3.5336485
0.15347165 1.2684251 3.5319777
0.15343383 1.2969173 3.5315032
0.1631906 1.2885076 3.5346692
0.16298476 1.4500544 3.531527
0.17262462 1.4503676 3.532294
0.18221991 1.4502931 3.5321143
0.1534317 1.4601241 3.532685
0.15486173 0.15576278 3.5421607
0.14532256 0.1704814 3.5460176
0.15483981 0.16543031 3.5417247
0.1453447 0.18506253 3.5466688
0.12559032 0.60549819 3.5435219
0.13513355 0.61938071 3.5402727
0.12573725 0.62073702 3.5479991
0.12572956 0.66913599 3.5488858
0.12594107 0.63144696 3.5539823
0.11634593 0.67091203 3.5582876
0.12601599 0.6609509 3.5567656
0.11669064 0.66315788 3.56863
0.11701079 0.65520883 3.5782211
2.1739283 1.5060465 3.5741143
0.11711177 0.63622022 3.5808721
2.1651058 1.5138247 3.5960343
2.168437 1.4960821 3.6039104
2.1621585 1.5338745 3.6077776
2.1672897 1.6332505 3.6042917
2.1912723 1.1910449 3.6160748
2.1626792 1.5191621 3.6104245
2.1589897 1.624514 3.6103814
0.12883271 0.18932757 3.6284955
2.1963167 1.1637098 3.6267428
2.1602404 1.643226 3.6299102
0.12893799 0.1745795 3.6313548
2.1919506 1.1968795 3.6352811
2.2018507 1.2269475 3.631144
2.1608098 1.4441901 3.6347284
2.1842685 1.1981819 3.6406744
2.2008893 1.2623161 3.6452079
2.1851919 1.3559403 3.6476295
2.1949821 1.3456259 3.6464922
2.1953077 1.1459756 3.6541166
2.1732626 1.2234457 3.6573212
2.1824858 1.222949 3.6544261
2.198194 1.2665809 3.6590426
2.1981788 1.3172055 3.654609
2.1647644 1.2243569 3.6614382
2.178091 1.2362912 3.6646726
2.1794803 1.2472137 3.6662107
2.1911111 1.2582049 3.6664598
2.1999784 1.2878791 3.6602919
2.1918314 1.3093393 3.6633573
2.1824532 1.2590628 3.6704054
0.064477593 1.6300923 3.9710705
2.1748929 0.32087073 4.0497727
2.1678133 0.23300277 4.0584097
2.1761539 0.31001365 4.0522146
2.1762125 0.33210883 4.0521426
2.1765203 0.3487246 4.0525718
2.1758544 0.3706986 4.0511241
0.066017531 0.9840607 4.0536904
0.12193794 0.17853341 4.0609584
2.1689837 0.22206569 4.0606666
0.12222689 0.21235842 4.0708466
2.1747506 0.34467161 4.0706382
0.077553317 1.0124637 4.0797381
0.066138819 1.4507287 4.0714641
2.1723132 0.25138855 4.0882359
2.1724784 0.30709705 4.0881786
2.1714854 0.32921889 4.0861359
2.1716456 0.37377673 4.0860577
2.1713626 0.39042705 4.0853677
2.1711984 0.40152851 4.0849495
0.066272318 1.5978328 4.08143
0.12303894 0.16893746 4.0976324
2.166811 0.2129648 4.0996952
2.1749966 0.27399984 4.0931587
2.1751535 0.29074723 4.0933433
0.066643439 0.98223799 4.0919251
0.12332027 0.22549164 4.1074314
2.168453 0.22430041 4.1027532
2.170465 0.31398535 4.1060157
2.1697431 0.33065242 4.1045208
0.066842794 0.97399038 4.10391
0.066752464 1.184919 4.1036239
0.077863201 1.3178691 4.1032238
2.1542385 0.2027183 4.1195245
0.07806582 1.3548701 4.1146083
0.0668047 1.3647189 4.1107664
2.1714597 0.33825257 4.1296277
2.1715667 0.36076576 4.129652
0.067066304 1.2466067 4.1242695
2.1633329 0.23173425 4.1368227
2.1723382 0.23711899 4.1319518
2.1729493 0.25407135 4.1330247
2.1736341 0.2879253 4.1341276
2.1730874 0.31036592 4.132935
2.1723747 0.3271426 4.1314554
0.067268111 1.2616148 4.1369615
0.68802667 2.1777015 4.1367402
2.1328557 0.20389239 4.144906
2.1671853 0.24907281 4.1441183
2.1666636 0.29413816 4.1428552
2.1671848 0.3111372 4.1437426
2.1681499 0.33384991 4.1454325
0.12484993 0.16005112 4.1580062
2.1287184 0.20457949 4.1593614
2.1509266 0.22717217 4.1574774
2.1601684 0.23825994 4.1529198
2.1625307 0.28945613 4.1571913
2.1624558 0.31774092 4.1568661
2.1627042 0.32909712 4.1572671
2.1639755 0.34061688 4.1596351
2.1637707 0.36889857 4.1590252
2.1604562 0.40791044 4.1523061
0.12495036 0.23985434 4.1619382
2.156189 0.23907293 4.1676173
2.1660171 0.25024208 4.1641307
2.1649125 0.27277696 4.16188
2.1569655 0.3186025 4.1686726
2.1643159 0.3519986 4.1602073
0.079020135 1.3261234 4.1640844
2.1584184 0.29042554 4.1716633
2.1612151 0.33060163 4.176827
2.1621349 0.34211862 4.1785297
2.1628814 0.37637734 4.1797209
2.1624722 0.39337224 4.1787901
0.12444682 1.6672491 4.1723223
2.1544695 0.29142857 4.1865864
2.154562 0.32562849 4.1865587
2.1534982 0.41089994 4.1838498
0.079549626 1.1183481 4.1869831
0.079528466 1.266253 4.1894212
0.079438746 1.4128599 4.1877851
2.1489415 0.24080449 4.1988173
2.1569133 0.25182763 4.1915574
2.1568375 0.27463567 4.1912928
2.148978 0.30937269 4.1985326
2.1483326 0.3321276 4.1971278
2.1584396 0.34905317 4.1939554
0.07962656 1.1080155 4.1907568
0.079654343 1.2796757 4.1963258
0.079529837 1.4030795 4.1923814
0.079565018 1.52916 4.1963377
0.12523812 1.8831993 4.198513
2.1497471 0.22946331 4.2004442
2.1508732 0.29820809 4.2023091
2.1523027 0.34418643 4.2048254
0.079934485 1.1352171 4.2075663
0.14860177 1.2145 4.2064581
0.14856151 1.2256175 4.2055855
0.091297857 1.3686124 4.2083569
0.12530924 1.6902179 4.2013569
0.12555395 1.8536375 4.2094259
0.12549192 1.8641529 4.2072525
0.12553501 1.8990989 4.2083626
2.1331987 0.20721482 4.213932
2.1434159 0.21855243 4.21099
2.1571841 0.28761205 4.2147284
2.1560338 0.3562479 4.2120519
0.14907742 1.1724422 4.218852
0.14904444 1.1951501 4.2184691
0.14900549 1.2063186 4.217638
0.13724276 1.5476191 4.2158031
0.091452777 1.5715786 4.2188625
0.12582812 1.9264573 4.2179236
2.148617 0.2305693 4.2211838
2.1611826 0.25366846 4.2227321
2.1605337 0.27656984 4.2213473
2.1516814 0.29416379 4.2269154
2.151818 0.33444566 4.2269511
2.1605458 0.36848232 4.2208047
0.12673798 0.56654334 4.2260904
0.09179581 1.048093 4.2236404
0.14944805 1.1408124 4.2285199
0.14913936 1.1614381 4.2203293
0.14924377 1.1852494 4.2238464
0.09161596 1.3906114 4.2233973
0.091688536 1.4606818 4.2280369
0.091587044 1.562404 4.2249246
0.11452472 1.9177359 4.2241311
0.12619309 1.9550353 4.2298465
0.12708683 0.15134203 4.2325959
2.1549401 0.27732921 4.2334208
2.1559935 0.34662059 4.2350974
2.1569741 0.41596556 4.2365284
0.092057645 0.97029489 4.2336807
0.092131063 1.0634712 4.2393889
0.14972909 1.1314213 4.2362046
0.10336906 1.2905148 4.2319808
0.114933 1.2910082 4.2336245
0.12638366 1.2902553 4.2311745
0.10345346 1.3952875 4.2376451
0.09179958 1.4049071 4.2321057
0.12637171 1.434027 4.2337308
0.10324971 1.450048 4.2303648
0.11471272 1.932381 4.2309303
0.11484716 1.9576676 4.2355642
0.1264002 1.9812723 4.2364144
2.1380031 0.20880423 4.2467394
2.1593463 0.24326459 4.2422576
2.1591706 0.26633069 4.2418056
0.12738651 0.38958466 4.2448664
2.1629133 0.40554798 4.2483091
0.12744719 0.52907956 4.2490554
0.10375247 1.0525906 4.2418303
0.09214472 1.0751806 4.2403092
0.10390207 1.0772569 4.2485409
0.09230832 1.1465249 4.2495866
0.092234515 1.1860785 4.2471752
0.11511779 1.3046218 4.2407031
0.12670098 1.3050363 4.2420774
0.092130393 1.3291184 4.245719
0.11505178 1.9726865 4.2429385
2.1547129 0.23246676 4.2564311
0.12758724 0.44830537 4.2524023
0.1276332 0.48915988 4.2545795
0.12753473 0.50620806 4.2515812
0.10405254 1.0904082 4.2549977
0.09235388 1.1007777 4.250535
0.10401318 1.1015824 4.2536745
0.092371508 1.1241488 4.2519274
0.10397406 1.1359152 4.2529373
0.11557099 1.159175 4.2538867
0.12717098 1.1592807 4.2543049
2.1590879 0.24454334 4.2650442
2.1574683 0.41829807 4.260807
0.70943135 2.2570803 4.2650156
2.1537061 0.22197612 4.2779541
2.1659226 0.36755067 4.277914
2.160763 0.2343798 4.2919559
2.1630349 0.33398235 4.2960033
2.1630805 0.35152009 4.2959909
2.1621625 0.36305487 4.2940922
0.093164705 2.0506773 4.2967434
2.1561711 0.22343807 4.3065953
0.11750561 0.25995803 4.3067784
2.1576846 0.32910296 4.3091545
2.1688433 0.37589672 4.3073125
2.1684613 0.38754842 4.3064737
0.081587084 2.0241382 4.303031
0.093229242 2.0345616 4.3000979
2.1606464 0.25325 4.3154416
0.11761201 0.27198127 4.3107958
0.11781368 0.29016083 4.3183765
0.11785035 0.30796769 4.3199062
0.11781148 0.37871322 4.3193135
2.1597044 0.43501776 4.3125148
0.11793203 0.32590997 4.323101
0.11788711 0.35532549 4.3217959
0.11797544 0.39106455 4.3254919
0.11803 0.40307516 4.3276563
2.1634047 0.40050057 4.3201714
0.11798961 0.5093686 4.3277912
0.11795336 0.52103412 4.3266582
0.11809708 0.41514075 4.3302841
0.11825999 0.43349063 4.3365235
0.11823138 0.45116261 4.3357348
0.11809926 0.49800524 4.331625
0.11865491 0.22682346 4.3486848
0.13085727 0.14391191 4.3583684
2.1674438 0.28503624 4.3530302
0.11870905 0.57196349 4.3552752
0.11914059 0.15610552 4.3660426
2.1639237 0.40499949 4.3696404
0.082720123 2.064106 4.362679
0.094660208 2.1013923 4.3654494
0.45076984 2.1485364 4.3621159
0.11946312 0.19244829 4.3781037
2.1652484 0.22684482 4.3731709
2.1677349 0.36999127 4.3775663
2.166337 0.38759822 4.3746338
0.45163256 2.1407602 4.3708715
0.13158126 0.13272204 4.382472
0.11963639 0.14476439 4.3841853
2.1720297 0.26334757 4.3867674
2.1042621 0.41921398 4.3961821
2.1024461 0.43079454 4.3923168
2.1544716 1.3485384 4.4063563
2.164849 1.3475047 4.4021711
-3.224859 2.5049355 4.4073949
2.1745079 0.36118776 4.4160419
-3.2289412 1.746358 4.4188299
-3.245728 1.7612072 4.4195328
-3.2702787 1.8560163 4.4192748
-3.2087271 2.1051061 4.4194326
-3.300818 2.1280994 4.4168825
0.61326802 2.2016258 4.4188991
-3.2672546 2.3187804 4.4198642
0.72162062 2.3341422 4.4111595
-3.2085402 2.3517232 4.4164791
-3.1949203 2.3702626 4.4149251
-3.2050483 2.4226253 4.4191756
-3.2436028 2.5094981 4.411531
-3.2706575 2.6471751 4.4197516
-3.207516 1.5912757 4.429462
-3.2209139 1.6042312 4.4260225
-3.2085118 1.6105604 4.4285297
-3.194658 1.6098945 4.4297686
-3.2087898 1.62949 4.426569
-3.1942277 1.6284556 4.4268436
-3.1664619 1.6395692 4.4275641
-3.1512384 1.6381607 4.4267464
-3.2399249 1.6513748 4.4261613
-3.1829209 1.6478665 4.429244
-3.1693015 1.6535594 4.4299726
-3.1539254 1.6520663 4.4289722
-2.9564228 1.6769415 4.4297924
-3.2487001 1.7754052 4.4217811
-3.238652 1.7768 4.4285731
-2.9391465 1.818187 4.4295592
-3.2537575 1.8285873 4.4212408
-3.242826 1.8295344 4.4268999
-3.2701585 1.8433287 4.4210558
-3.2596209 1.8508236 4.4263449
-3.2435009 1.8425289 4.4259257
-3.2601347 1.8700591 4.4241242
-3.2491643 1.8710176 4.4298048
-3.2634113 1.8972225 4.4246063
-3.251858 1.8978615 4.4295363
-3.24772 1.8828162 4.4258704
-3.2078726 1.9195455 4.4273448
-3.1928127 1.9054718 4.4292521
-3.2568786 1.9514545 4.4282289
-3.2268817 1.948644 4.4287114
-3.257163 1.970629 4.4254646
-3.2442327 1.9704695 4.4285917
-3.2280321 1.9619907 4.4282289
-3.2138064 1.9610342 4.429462
-3.2745368 2.0051715 4.4229312
-3.2584445 2.0030804 4.4218574
-3.2185791 2.0146048 4.4276237
-3.2051518 2.0141292 4.4299955
-3.2216139 2.029181 4.4296441
-3.266433 2.0460999 4.4260964
-3.251296 2.0572662 4.4241085
-3.2363052 2.0558105 4.4245062
-3.254061 2.0717199 4.4256167
-3.2364352 2.068578 4.4224396
-3.2226913 2.0679021 4.4245038
-3.2078581 2.066519 4.425014
-3.1922722 2.0709672 4.4233055
-3.1803761 2.0778024 4.4266849
-3.1652043 2.0635068 4.4287553
-3.1507354 2.0686469 4.4284506
-3.2407546 2.0903919 4.4249372
-3.223484 2.0874386 4.4222031
-3.2087779 2.0861237 4.4229169
-3.1789749 2.0895452 4.4225001
-3.1660693 2.0893855 4.4255562
-3.2725308 2.1008263 4.4252167
-3.2616153 2.1147306 4.4289765
-3.2286596 2.1098449 4.4258761
-3.1957536 2.1175885 4.4202175
-3.1808085 2.1097488 4.4216628
-3.1684976 2.1099896 4.4255848
-3.1553423 2.1159987 4.427165
-3.2911677 2.130101 4.4247704
-2.9406416 2.1486549 4.4284549
-2.9383059 2.1594982 4.4227939
0.095909297 2.1411455 4.4228754
0.63752151 2.142138 4.4221911
-3.2345424 2.170969 4.4232903
-3.2178936 2.1746802 4.42029
-2.95474 2.1686196 4.4245868
-3.224375 2.1917977 4.4267774
-2.9593084 2.1908517 4.4281487
-2.9428351 2.1879654 4.4252753
-3.2720366 2.2109087 4.4261131
-3.1234765 2.2090013 4.4297652
-2.9606764 2.2044561 4.4279733
-2.9486129 2.2174492 4.4295325
-3.2644384 2.2783976 4.4240417
-3.2513692 2.2910025 4.424799
-3.2378614 2.2905014 4.427557
-3.3017609 2.325036 4.4240971
-3.2891765 2.3380618 4.4255862
-3.2762933 2.3380363 4.4293914
-3.1966558 2.3396041 4.4241052
-3.1970394 2.3526659 4.421946
-3.2377033 2.3893647 4.4296989
-2.96579 2.3950415 4.423965
-3.1194687 2.4159133 4.4287777
-2.9675703 2.4091539 4.4240341
-3.2284408 2.4305856 4.4299397
-3.2309623 2.4710801 4.4246979
-3.2472332 2.4865489 4.4225025
-3.2370956 2.628027 4.4207139
-3.255003 2.6449995 4.4201798
-3.2428219 2.6456404 4.4252872
2.1815338 0.26596141 4.4307704
2.1737008 0.37513253 4.4392896
2.1735394 0.38717636 4.4388943
-3.2203135 1.2733651 4.4397392
-2.9384222 1.3088862 4.4376159
-2.9268255 1.3215635 4.439971
-3.2007117 1.4129565 4.4396729
-3.2276592 1.4325624 4.4344687
-3.2164702 1.4394058 4.4386177
-3.2025506 1.4387747 4.4396229
-3.1875148 1.4376347 4.4390159
-3.2149754 1.4512399 4.4352131
-3.2019033 1.4509842 4.437396
-3.1868649 1.4498323 4.4367943
-3.172405 1.4489354 4.4369354
-3.1576784 1.4479092 4.4366412
-3.1893041 1.4634423 4.4388638
-3.1731646 1.4680145 4.4360104
-3.1575899 1.4665804 4.4345455
-3.1453116 1.4666725 4.4376664
-3.1743286 1.4872855 4.4356189
-3.159862 1.4863588 4.4357381
-3.1452036 1.4915729 4.4348526
-3.1337478 1.4920592 4.4391298
-2.9438641 1.4843829 4.430613
-3.1500106 1.5125904 4.4396048
-3.1347144 1.5112417 4.4384804
-3.2339728 1.5293255 4.4326835
-3.1786933 1.533107 4.4368525
-3.1486006 1.5306469 4.4355335
-3.1356602 1.5304258 4.4377589
-3.2094171 1.5420991 4.4380541
-3.1944649 1.5409333 4.4377036
-3.1799331 1.5524745 4.4364347
-3.1507924 1.5504547 4.436512
-3.1357579 1.5492035 4.435801
-3.1232276 1.5491843 4.4385877
-3.1091828 1.5484108 4.4391742
-3.164943 1.5762684 4.4330077
-3.1387227 1.5756643 4.4371424
-3.1239882 1.5682933 4.4375482
-3.1101813 1.5738757 4.4377904
-3.1099613 1.5612816 4.4388905
-3.0825083 1.5725012 4.4394622
-2.9546545 1.5642698 4.4394264
-3.1940937 1.5908302 4.4312754
-3.1806777 1.5903845 4.4330516
-3.138531 1.588065 4.4354143
-3.1250088 1.5875473 4.4368429
-3.111423 1.5994817 4.4366841
-3.1094308 1.5859767 4.4352856
-3.0974002 1.5924547 4.4380283
-3.0839956 1.598218 4.4387746
-3.1272881 1.6012076 4.438623
-3.1134067 1.6129981 4.4380503
-3.1000197 1.6125382 4.4396152
-3.0855465 1.6115068 4.439568
-2.9570744 1.6152221 4.4377708
-2.9429886 1.6143101 4.4377298
-3.1292481 1.6397417 4.4369164
-3.1151967 1.6326821 4.4383698
-3.0861332 1.624301 4.4389529
-2.9550025 1.6327025 4.4325995
-2.9405968 1.625399 4.4327636
-3.2284901 1.6519494 4.4308896
-3.214242 1.6510843 4.4317102
-3.2003891 1.6566843 4.4322257
-3.1983628 1.6430997 4.4310093
-3.1301155 1.6527096 4.436615
-3.229795 1.6714571 4.4302335
-3.2157462 1.6706866 4.4313564
-3.2028258 1.6704987 4.433991
-3.1875391 1.6690704 4.4332886
-3.1721311 1.6675669 4.4323463
-3.143857 1.6658709 4.4338384
-3.1318269 1.6786542 4.4359221
-3.1174097 1.6651237 4.4377151
-3.105371 1.6778957 4.4397407
-2.9059875 1.6640952 4.4399538
-3.217205 1.684005 4.4317241
-3.205157 1.6968396 4.4339361
-3.12046 1.6918032 4.4389291
-3.105516 1.6904893 4.4383831
-3.0912681 1.6895456 4.4387736
-3.0771682 1.688675 4.439321
-3.0622602 1.6935968 4.4378681
-3.0483837 1.692832 4.438633
-3.1933661 1.7098179 4.4364824
-3.1061962 1.7096364 4.4369745
-3.0923531 1.7026514 4.4387646
-3.0772183 1.7074594 4.437048
-3.0630436 1.7127745 4.4366708
-3.0493588 1.7121102 4.4377398
-2.9642859 1.7125206 4.4379249
-2.9508288 1.7181616 4.4382381
-2.9468153 1.7033979 4.4336658
-3.1819725 1.7293074 4.4387212
-3.1078174 1.729316 4.4368734
-3.0638263 1.7257107 4.4362259
-3.0516624 1.7321553 4.438736
-3.0374339 1.7311728 4.4389935
-3.022908 1.7237684 4.4395375
-2.9500976 1.7301768 4.4356408
-2.9355612 1.7289459 4.4350271
-3.1226082 1.7556362 4.4338222
-3.0810204 1.7408595 4.4385448
-2.9505877 1.75535 4.4333344
-2.9479144 1.7413278 4.4308395
