ply
format ascii 1.0
comment PCL generated
element vertex 1596
property float x
property float y
property float z
element face 0
element camera 0
property float view_px
property float view_py
property float view_pz
property float x_axisx
property float x_axisy
property float x_axisz
property float y_axisx
property float y_axisy
property float y_axisz
property float z_axisx
property float z_axisy
property float z_axisz
property float focal
property float scalex
property float scaley
property float centerx
property float centery
property int viewportx
property int viewporty
property float k1
property float k2
end_header
1.0073748 1.9380208 4.7531714
1.7496575 1.9315867 4.7545843
1.0084052 1.9529302 4.7578721
1.0213633 2.0046883 4.7570739
1.0217597 2.0442638 4.7581754
1.0072657 2.0540233 4.7506857
1.0075457 2.0675101 4.7517252
1.7533864 2.0655527 4.7582879
1.007394 2.0801127 4.7507114
0.9943794 2.0928278 4.7500982
1.008904 2.0961645 4.757535
1.7542111 2.1184883 4.757513
1.7522756 2.1291277 4.7514596
1.0079477 2.132941 4.7519994
1.0078773 2.1457129 4.7512994
1.8198854 2.1452844 4.7541828
1.0079467 2.1587815 4.7512431
1.009716 2.1755149 4.7591996
0.96914518 2.1845765 4.7508883
0.95612478 2.1972818 4.7501922
0.99665505 2.2011566 4.7580204
1.0234369 2.2548771 4.7598376
1.0217263 2.2640405 4.7513494
1.972926 2.2737987 4.7596931
1.9838041 2.2712913 4.7534142
1.3686976 2.2838564 4.7562633
1.2595429 2.363833 4.7596927
1.773604 2.3738794 4.7556014
1.0120039 2.426935 4.7592015
2.2861977 2.5507393 4.7553892
1.0262477 2.5858006 4.7542543
2.2052207 2.5884078 4.7560205
1.0267642 2.6000974 4.755631
1.0269535 2.6135752 4.7554669
1.8922102 2.6152294 4.7595882
1.910055 2.6126747 4.7531118
1.8768522 2.6252675 4.7535005
1.8891413 2.6241035 4.7501879
1.8625638 2.6367457 4.7500501
1.4756868 2.6514337 4.75453
1.8377166 2.6518664 4.7543283
1.3512392 2.6637888 4.7588196
1.8242071 2.664434 4.7528095
1.8106891 2.6769757 4.7512364
1.2389216 2.6870382 4.7565498
1.251603 2.6862578 4.7545586
1.264329 2.6855881 4.7527528
1.5307029 2.6823959 4.7569866
1.2000216 2.7006063 4.7579517
1.6519668 2.7142911 4.7555752
1.0093237 1.5018499 4.7626038
1.0091896 1.5145874 4.7620831
0.99583775 1.5268973 4.7601619
1.0106305 1.5297056 4.7690039
1.0104365 1.5423651 4.7681894
1.0097944 1.5543296 4.7652502
1.0095918 1.5669602 4.7643828
1.0096308 1.5799634 4.7646527
1.0091734 1.5921847 4.7625685
1.0090071 1.604857 4.7618542
2.5381987 1.6359009 4.7653546
2.5371511 1.6482998 4.7625332
1.0098691 1.7097946 4.7662554
1.0098106 1.7226405 4.765985
1.0104789 1.7367343 4.7691431
1.0092213 1.7604482 4.7631688
1.7526742 1.7661816 4.7691159
1.751161 1.7776251 4.7645793
1.751106 1.7905372 4.7640061
1.7506398 1.8030251 4.7623005
2.5280054 1.8080035 4.7600574
1.7518711 1.8172673 4.7652092
1.009249 1.8251857 4.7630711
1.0091076 1.8508021 4.7622442
1.009394 1.8642671 4.7635045
1.0087589 1.8760258 4.7603979
1.0089898 1.8893898 4.7613745
1.8320224 1.8974653 4.7650261
1.0094094 1.9031154 4.7632332
1.8316818 1.9101002 4.7635465
1.8342712 1.9258062 4.7696848
1.0233514 1.9308753 4.7675171
1.8340029 1.9385283 4.768364
1.7526789 1.9479018 4.7622313
1.0232992 1.9566805 4.766932
1.0229766 1.9690115 4.7652388
1.0231853 1.9823637 4.7660127
1.022081 1.9931607 4.7606478
1.8351382 1.991776 4.7686877
1.7551191 2.0026052 4.7664137
1.0223861 2.0196359 4.7616096
1.0228238 2.0334468 4.7634025
1.7557888 2.0423775 4.766233
1.7545891 2.0539756 4.7622719
1.024267 2.0622442 4.7695961
1.0230048 2.0726509 4.7634177
1.0247744 2.1540596 4.7696362
1.0238838 2.1651473 4.7650933
1.0250034 2.1804881 4.769907
1.011905 2.193203 4.7691207
1.8258197 2.191395 4.7670069
1.0245286 2.2443151 4.7654266
1.745268 2.253633 4.7605891
1.7060421 2.2794824 4.7604585
1.3258072 2.2882161 4.7668633
1.6695957 2.2961211 4.7691531
1.1430595 2.3646891 4.7648559
1.2752321 2.3688493 4.7693882
1.6966681 2.362689 4.7653685
1.7519573 2.3799119 4.7694187
1.762092 2.3759446 4.7606068
1.8043119 2.3930449 4.7648673
1.026741 2.4051073 4.7685294
1.0257298 2.4157209 4.763103
1.9145725 2.4132285 4.7698641
2.3177249 2.5563569 4.7624316
2.4175963 2.5506577 4.7657638
1.0277716 2.563623 4.7632999
2.1128733 2.575331 4.7687831
1.8742735 2.6177163 4.7659035
1.0295995 2.6333408 4.7666731
1.0288107 2.644345 4.7619224
1.0294112 2.6589177 4.7635903
1.2945075 2.6679795 4.7692604
1.3072996 2.6673932 4.7675767
1.3320236 2.6645346 4.7611589
1.3724432 2.6669288 4.7634115
1.5046048 2.6694465 4.7603636
1.2803128 2.6787195 4.7644267
1.5198871 2.6733084 4.766439
1.2681321 2.6805952 4.7683907
1.1890465 2.7053216 4.7668505
1.6415154 2.7055709 4.7659392
1.1632291 2.719142 4.7680058
1.7542177 1.481933 4.7797942
1.7530756 1.4939507 4.7764769
1.7515154 1.5055922 4.7720108
1.7516805 1.5187066 4.7722468
1.8321652 1.5338694 4.7771029
1.8307992 1.545707 4.7732573
1.7533133 1.6239971 4.7746701
1.7534137 1.6370752 4.7746487
1.7540801 1.6506875 4.7761612
1.0114826 1.6606605 4.7737803
1.7543302 1.6639147 4.7765284
1.0252885 1.7009429 4.7777715
1.0251337 1.7136613 4.7770591
1.7539395 1.7544677 4.7729659
1.8345802 1.7570268 4.7773566
1.0256575 1.766464 4.7794609
1.8334527 1.7689468 4.7739625
1.0247443 1.7778611 4.7751651
1.8355327 1.7839684 4.7789235
1.0247772 1.8038595 4.7752266
1.0237077 1.8149343 4.770174
1.0240097 1.8284303 4.7715144
1.0257776 1.84457 4.7796869
1.0255799 1.8571956 4.7786751
1.8352861 1.8618068 4.7752309
2.5233943 1.8666617 4.7733855
1.0242013 1.9195154 4.7716365
1.0243003 1.9456303 4.771781
1.8362627 1.9799767 4.7722964
1.8380173 2.0079331 4.775486
1.8389686 2.0220115 4.7772503
1.0260788 2.0918663 4.7774539
1.0250521 2.1027472 4.772347
1.838819 2.1000755 4.772253
1.8532093 2.1016023 4.7750053
1.0252752 2.1161816 4.7730556
1.7487853 2.1146522 4.7796583
1.8404796 2.1150217 4.775744
1.8416361 2.1294088 4.7779064
1.0262159 2.1311121 4.7770958
1.0260479 2.1437502 4.7759514
1.8431033 2.1572418 4.7799788
2.0299816 2.1744237 4.7758617
1.7490488 2.2063172 4.7746115
1.7381358 2.2351711 4.7794209
1.8283354 2.233583 4.7707129
1.7374429 2.2473404 4.7765899
1.7360457 2.2585831 4.7718015
1.9244941 2.2783453 4.7731576
1.6992295 2.2878478 4.7786798
1.2760234 2.2922084 4.7767854
1.2878737 2.2901208 4.7720428
1.3140771 2.2904322 4.7718987
1.3931025 2.2919796 4.7725325
1.6578356 2.297904 4.7735519
1.5471169 2.3635573 4.7751656
1.5655313 2.3617885 4.7706304
1.0546807 2.3834944 4.7781124
1.0679965 2.3841434 4.779108
1.0805219 2.3830335 4.7765646
1.7399194 2.3813341 4.7731075
1.0415387 2.396245 4.7771859
1.0421379 2.4106491 4.7792292
1.0291877 2.4368913 4.7784472
1.0290236 2.5537217 4.7700672
2.3730693 2.5527806 4.7762508
2.3932483 2.5530295 4.7739625
2.4058864 2.5523293 4.7707834
2.1968777 2.5809212 4.7700605
1.8970912 2.6088042 4.7735376
1.4942782 2.6612811 4.7714305
1.0327846 2.6807029 4.7780843
1.2311841 2.6855764 4.7790723
1.2554268 2.6813896 4.7704167
1.550408 2.6807604 4.7780557
1.5776622 2.68241 4.7792525
1.191311 2.6973841 4.7772355
1.2035913 2.6955593 4.7734289
1.6175729 2.6963212 4.7763333
1.6317408 2.697998 4.7783594
1.1773944 2.7085841 4.7731776
1.1653451 2.7109962 4.7779937
1.6867778 2.7281742 4.7778964
1.7560977 1.470516 4.7851176
1.0264055 1.5209193 4.7821016
2.532784 1.5227965 4.7881622
1.026063 1.5333986 4.7806072
1.7573565 1.5366417 4.7875147
1.0260155 1.5463139 4.7804842
1.8337886 1.5612333 4.7807784
1.833776 1.5742247 4.7804503
1.8357207 1.5889102 4.7852235
1.8363754 1.6024975 4.7866182
1.0267532 1.6124036 4.7843299
1.0258818 1.6240197 4.780323
1.0276124 1.665779 4.7885451
1.0273199 1.6783074 4.7872124
1.756699 1.6791711 4.7826643
1.0260828 1.6892735 4.7814617
1.758649 1.6940589 4.7876472
2.5629199 1.6959188 4.7822485
1.7579782 1.7064316 4.785471
1.0264565 1.7288642 4.7832355
1.0265392 1.7419966 4.7836156
1.0262725 1.7545336 4.7823558
1.8368433 1.7982664 4.7818651
1.8381466 1.8125755 4.7847738
1.8369557 1.8504755 4.7801237
1.8523982 1.8659298 4.7852788
1.8519003 1.8784668 4.7834272
1.7472299 1.8911607 4.7861433
1.7484847 1.9055641 4.7890697
1.8517355 1.9043738 4.7818327
1.0403541 1.912405 4.7863784
1.7480494 1.9181318 4.7873449
1.0401368 1.9250059 4.7852292
1.040212 1.9381462 4.7854161
1.0409734 1.9525758 4.7887549
1.039663 1.9631121 4.7825327
1.9356447 1.9622521 4.7893705
1.040466 1.9776329 4.7860389
1.8689502 1.9870321 4.7880521
1.9221717 1.9879974 4.7876496
1.0408709 1.9914122 4.7876987
1.8551991 1.9993668 4.7862515
1.0409776 2.004627 4.787971
1.8822904 2.0003831 4.7873607
1.9090385 2.0010126 4.7874832
1.0411298 2.0179331 4.7884417
1.8820822 2.0132289 4.7861018
1.0402496 2.0292289 4.784142
1.8963615 2.027586 4.7877045
1.8487363 2.0386257 4.7845926
1.0407876 2.0432868 4.7863641
1.8708012 2.0413172 4.7898951
1.8965732 2.0408888 4.7874689
1.9296539 2.041286 4.7865448
1.0411748 2.0570605 4.787878
1.8408524 2.0501878 4.7806797
1.8486933 2.064703 4.7829671
1.8560338 2.0786705 4.7839217
1.8712901 2.0810986 4.7888007
1.8549572 2.0905247 4.7803378
1.871219 2.0941014 4.7878027
1.8710594 2.1070039 4.7865615
1.884225 2.1070924 4.7860084
1.0418583 2.1104984 4.7898097
1.8568041 2.1187518 4.7834463
1.8706436 2.1196141 4.784647
1.8583031 2.1335454 4.786459
1.8724071 2.1347027 4.7882991
1.9130533 2.1362185 4.7893329
1.926574 2.1366789 4.7895455
3.0652976 2.1379366 4.7822304
1.844195 2.1454434 4.7836947
1.8997896 2.1491394 4.7888331
1.9131445 2.1494207 4.7886443
1.9403677 2.1505411 4.7894645
1.0416662 2.1621873 4.7874804
1.9262439 2.1887145 4.784905
1.0421972 2.202368 4.7886834
1.0273724 2.2115345 4.7800908
1.7394515 2.2237878 4.7839503
2.9403648 2.2424669 4.7842636
1.1277837 2.295336 4.787179
1.1597599 2.2940965 4.7838335
1.1720905 2.2927189 4.7806411
1.1850547 2.2925971 4.7800641
2.5072715 2.2953029 4.7811012
1.2917317 2.3752549 4.7818751
1.3985683 2.3793817 4.7863908
1.6898046 2.371376 4.7836914
1.4123132 2.3805125 4.7881494
1.7318597 2.3882637 4.7878451
1.7454628 2.4020414 4.7871976
1.0437827 2.4274993 4.7860541
2.3976436 2.5444014 4.7847157
2.4139519 2.5475526 4.7887931
2.3536842 2.5533864 4.7800941
1.0449684 2.5869863 4.7810993
1.8180277 2.595629 4.7819204
1.8320715 2.5968583 4.7831016
1.0452535 2.6007566 4.7813969
1.793411 2.6113288 4.7871618
1.7791395 2.6229169 4.7837558
1.7815462 2.6396585 4.7886696
1.047503 2.6587236 4.7874265
1.7674078 2.651443 4.7855997
1.0467482 2.6698906 4.7828417
1.5116946 2.6688824 4.7842798
1.5935557 2.6870358 4.7866125
1.6061199 2.6860178 4.783886
1.1547037 2.7167754 4.7887473
1.7481307 1.5269417 4.7984214
1.7589023 1.5510193 4.7915006
2.6910458 1.5570697 4.796638
1.9334385 1.5682033 4.7994576
1.9205559 1.5944765 4.7996402
2.5827613 1.6081138 4.7994628
1.8397515 1.6184882 4.7951093
2.5807068 1.6199973 4.7947998
1.0423672 1.6294836 4.7964716
2.5685925 1.6206627 4.7981076
1.7484558 1.6315861 4.7973332
2.5670996 1.6328814 4.7944732
2.5821605 1.6340801 4.7966537
1.7477326 1.6439512 4.7950573
1.841018 1.6457098 4.7977357
2.5680823 1.6466719 4.7954569
1.84184 1.6856232 4.7987847
2.041183 1.6884065 4.7989745
1.0417074 1.7065724 4.7936196
2.040688 1.7010751 4.7972884
1.0409491 1.7183404 4.7901287
2.5989013 1.7154551 4.7964034
1.8957313 1.7262862 4.7998552
1.9088527 1.7263267 4.799468
2.5839455 1.7274657 4.7936144
1.868692 1.7385321 4.7980995
1.8554534 1.7514377 4.7976933
1.8693641 1.7522267 4.7993789
2.5729356 1.7553085 4.7971754
1.8553444 1.7643974 4.7969594
1.8687432 1.7647095 4.7973213
1.8546338 1.7767791 4.7946548
1.8693161 1.7783194 4.7983217
1.0420442 1.7852693 4.7950759
1.7481477 1.787812 4.7923417
1.0412145 1.7968618 4.7912045
1.8558739 1.7910335 4.7973914
1.8697964 1.7918485 4.7990718
1.9488125 1.7923528 4.7971072
1.7500994 1.8028654 4.7972841
1.8563417 1.8045546 4.7981148
1.8702703 1.8053781 4.7997928
1.9357507 1.805447 4.7972002
1.0427692 1.8125781 4.7983155
1.7501078 1.8159312 4.7968779
1.8561231 1.81741 4.7970481
1.9366037 1.8193245 4.7987618
1.9619009 1.8185108 4.7953849
1.042926 1.8258858 4.7989731
1.8404536 1.8279001 4.790287
1.9364808 1.8322899 4.7978873
1.9615178 1.8312291 4.793859
1.8836269 1.8448745 4.7983727
1.9494116 1.8452233 4.7962952
1.0422847 1.8508176 4.7958565
1.8709042 1.85831 4.7993073
1.8898097 1.8575962 4.7966051
1.0412903 1.8620666 4.7911777
1.748859 1.879876 4.7911191
1.8695561 1.8700415 4.7952814
1.8835007 1.8709038 4.7969222
1.9098421 1.8710772 4.7961764
1.8688855 1.8824366 4.792984
1.8970367 1.8844311 4.7968893
1.9638418 1.8857543 4.79706
1.8822386 1.8957862 4.792521
1.9243606 1.8986485 4.7979054
1.9513249 1.8994056 4.7985063
1.0412604 1.9010563 4.7906928
1.9107574 1.911226 4.796627
1.9498463 1.9110489 4.7942023
1.8980025 1.9246497 4.797471
1.9373028 1.9246734 4.7955637
1.9512736 1.9255404 4.7970428
1.7520139 1.9355536 4.797677
1.8561906 1.9350926 4.7921324
1.8973957 1.9371164 4.7952843
1.9238623 1.9374093 4.7946944
1.9499619 1.9373298 4.7931232
1.9787128 1.9398513 4.7979379
1.8846123 1.9505137 4.7960429
1.9644742 1.951827 4.7951794
1.7521539 1.9618539 4.7969289
1.8563143 1.9613602 4.7911687
1.8919246 1.9643936 4.7969913
1.91152 1.9643459 4.7958755
1.9635925 1.9640381 4.7922935
1.7527355 1.9755818 4.797936
1.9098622 1.9757202 4.7910051
1.923231 1.9760133 4.7910218
1.950754 1.9773834 4.7929153
1.9652715 1.978816 4.7956533
1.7517147 1.9875005 4.7945347
1.9108759 1.9898537 4.7928338
1.9508312 1.990551 4.7923555
1.9647336 1.9913691 4.7935781
1.7521372 2.0271978 4.7937994
1.964416 2.0303254 4.7904277
1.7523746 2.0405464 4.7937875
1.885475 2.0430386 4.7932391
1.9118553 2.0432398 4.7922626
1.9657987 2.0448563 4.7929807
1.7513342 2.0524018 4.7902598
1.8578429 2.0545363 4.7901545
1.898488 2.0560391 4.7915244
1.7525957 2.066956 4.7930241
1.8719468 2.0687418 4.7912841
1.0430731 2.0738478 4.7963395
1.7519454 2.0792601 4.7905335
1.9147617 2.0725689 4.7979465
1.9281012 2.072808 4.7977319
1.0431099 2.0869584 4.7962108
1.9081165 2.0855839 4.7972746
1.9285636 2.0864213 4.7980423
1.0418752 2.0975106 4.7902122
1.9001824 2.0971782 4.7933455
1.9419373 2.0998094 4.7969995
1.8997713 2.109823 4.7914524
1.9279209 2.1119494 4.7947044
1.0430073 2.1258621 4.7947621
1.8996115 2.1227429 4.7901773
1.9276801 2.1247957 4.793211
1.95368 2.1245434 4.7909732
1.940441 2.1375148 4.790585
1.9682747 2.139261 4.7927837
1.9285622 2.1520002 4.7935681
1.9545902 2.1517627 4.791326
1.9155382 2.1652269 4.7937112
1.9276204 2.1640589 4.790277
1.9420236 2.1786134 4.7916265
1.9723475 2.1831243 4.7997737
1.9573083 2.1941538 4.7950373
1.9720901 2.1959834 4.7981281
1.8498069 2.2044361 4.7946415
1.9725277 2.2096174 4.7981577
1.9590352 2.2223783 4.797205
1.0440034 2.2322819 4.7960887
1.9338092 2.2499173 4.799602
1.2029104 2.3018377 4.799036
1.2675606 2.300487 4.7944465
1.4139009 2.3046536 4.7985044
1.4532701 2.3047874 4.7973208
1.5455528 2.3057015 4.7954516
1.6417997 2.377753 4.7995319
1.6817997 2.3785851 4.7990184
1.428508 2.3857143 4.7981005
1.1234317 2.3912115 4.791996
1.2104378 2.395304 4.7978306
1.7221217 2.392967 4.7981019
1.072381 2.4070075 4.7980571
1.7335161 2.4036772 4.7912974
1.0587952 2.4189332 4.7953668
1.0988539 2.4207642 4.7980123
1.3866086 2.6554012 4.7921338
1.0627204 2.6640358 4.7965641
1.0636635 2.6795301 4.7996883
1.5275027 2.6735377 4.7918215
1.7303369 2.6816998 4.7925024
1.0498796 2.6909997 4.7960196
1.6240418 2.6939037 4.7970304
1.0498235 2.7039773 4.7945819
1.6505078 2.7071912 4.7937055
1.0646203 2.734509 4.7992029
1.0631452 2.7438436 4.7912765
1.949788 1.4923537 4.8091087
1.8680385 1.5028454 4.802702
1.8954796 1.5038846 4.805347
1.9100432 1.5050576 4.8087435
1.929723 1.5050983 4.8083096
1.9493008 1.50506 4.8075976
2.693074 1.5054542 4.8036122
1.7501061 1.5156096 4.8040624
1.8824424 1.5169837 4.8055134
1.9081324 1.5166183 4.8036327
1.928515 1.5172267 4.8049879
1.9479961 1.5171231 4.8040586
1.9627564 1.5184259 4.8077736
1.0446304 1.5285692 4.8062706
1.8690369 1.5297825 4.8047276
1.8950969 1.5297135 4.8037987
1.9344491 1.5298212 4.8029757
1.9470453 1.5294467 4.8013854
1.9088677 1.5302738 4.8051863
1.9621645 1.5310457 4.8059883
1.0438256 1.5404381 4.8026614
1.8558748 1.5427749 4.8045554
1.9341192 1.5426253 4.8018293
1.9628322 1.5446488 4.8072839
1.0450894 1.5553654 4.8085818
1.8703498 1.5570092 4.8075271
1.8833542 1.5569451 4.8069634
1.933604 1.5552758 4.8002129
1.9610505 1.5563171 4.8025613
1.0445281 1.5675853 4.8060827
1.8569849 1.5698459 4.8068514
1.9479268 1.5693488 4.8025327
1.8702573 1.5700076 4.8069849
1.9632387 1.5711385 4.8075681
1.8567967 1.5827597 4.8060579
1.9074935 1.5814186 4.8004265
1.9275806 1.5818183 4.8010063
1.9503584 1.5843942 4.8081765
1.8578911 1.5967729 4.8085809
1.8958961 1.5957177 4.8042264
1.9088942 1.5956515 4.8036113
2.600795 1.597923 4.807941
1.8839105 1.6097229 4.8070807
1.9291654 1.6092701 4.8042307
2.5698531 1.6082833 4.8012943
1.0435526 1.6182936 4.8018794
1.7495801 1.6195819 4.800704
1.8974506 1.6101087 4.8078241
1.9105501 1.6101183 4.8074288
1.8975098 1.6232419 4.8076153
1.910525 1.6231796 4.8069978
1.9305241 1.6234868 4.8072352
1.0577085 1.6330462 4.8070102
1.8423488 1.6338364 4.8015556
1.8845354 1.6364242 4.8079662
1.9101412 1.6359334 4.8056536
1.9296983 1.6358719 4.8047857
1.9513881 1.6376036 4.8091679
1.0432903 1.6439663 4.8007765
1.8912213 1.649632 4.8077393
1.9303287 1.6494908 4.8059607
1.0437049 1.6576647 4.802731
1.750501 1.6596153 4.8023667
1.0432111 1.6699193 4.8004904
1.8428311 1.6603971 4.802114
1.8968592 1.6619208 4.8048263
1.9227203 1.6616553 4.8031297
1.0583071 1.6731626 4.8098493
1.7500082 1.6722047 4.800704
1.8429341 1.6735573 4.8020172
1.8849844 1.6760746 4.8079696
1.9232894 1.6752274 4.8041363
1.8584704 1.6888628 4.807601
1.8723848 1.6896065 4.8092847
1.8844848 1.688714 4.8062906
1.9231452 1.688181 4.8033471
1.9387368 1.6903665 4.8090754
2.6014066 1.6907065 4.8029213
1.8583057 1.7017965 4.806778
1.9105804 1.7017235 4.8047147
1.9322028 1.7034765 4.8089209
1.8973794 1.7147049 4.8044801
1.909369 1.713719 4.8012214
1.9316033 1.7160401 4.8069706
1.9525334 1.7171698 4.8093472
1.9657451 1.7172616 4.8090577
1.753814 1.7281815 4.809823
1.9302456 1.7279189 4.8031235
1.9506803 1.7286284 4.8042941
1.9644226 1.7291989 4.8053265
1.752884 1.7403433 4.8069067
1.8965994 1.7401532 4.8016014
1.9107789 1.7411531 4.8038554
1.9296789 1.7404909 4.8012333
1.9513155 1.7422841 4.8053694
1.9651548 1.7429413 4.8066196
1.7515445 1.7520815 4.8028545
1.8903261 1.7534769 4.8020649
1.910512 1.7539922 4.8027062
1.9232939 1.7537129 4.8014083
1.9530116 1.7569026 4.8090491
1.9665061 1.7572463 4.8094172
1.8906963 1.7669044 4.8025398
1.9109371 1.7674676 4.8032885
1.9511422 1.7683123 4.8039217
1.9508684 1.7811538 4.8027177
1.7406636 1.7935455 4.8081365
1.8986959 1.7944413 4.8049765
1.9124645 1.7950721 4.8061213
1.9307458 1.7937977 4.801856
1.0580965 1.803445 4.8087592
1.8992676 1.8080767 4.8059092
1.9126945 1.808385 4.8061743
1.9237525 1.8064648 4.8004918
1.8723613 1.8204867 4.8046589
1.8993995 1.8212985 4.8057151
1.9242458 1.8200147 4.801178
1.979872 1.8230129 4.8066421
1.043327 1.839628 4.800746
1.8580209 1.8323497 4.8014483
1.8729057 1.8341099 4.8055353
1.8857442 1.833856 4.8043213
1.9113947 1.8333331 4.8018136
1.9240315 1.8328972 4.8000822
1.9876376 1.8372369 4.8086376
1.8713096 1.8456298 4.8008976
1.9937817 1.8499678 4.8066812
1.9813368 1.8505975 4.8089919
1.0582641 1.8690488 4.8091183
1.980044 1.8624996 4.8052225
1.9651386 1.8739021 4.8008766
1.9808049 1.8763298 4.8064327
2.5532298 1.8789446 4.8033686
1.9800391 1.8887138 4.8039169
1.0573926 1.893615 4.8049173
1.7402503 1.8977715 4.8033724
1.0581779 1.908084 4.8083606
1.9676925 1.9025664 4.8058252
1.9802512 1.902027 4.8037648
1.9666506 1.9146665 4.8026037
1.981797 1.9166325 4.8068385
1.7427996 1.9267529 4.8093872
1.9808366 1.9288188 4.8038087
1.0580357 1.9339491 4.807416
1.0576601 1.946319 4.805541
1.7533268 1.9500856 4.8007193
1.982556 1.9567449 4.8065472
1.0584781 1.9608902 4.8090868
1.9815804 1.9689018 4.8034358
2.6850579 1.9676384 4.8041768
1.0574981 1.9721287 4.8044367
1.0578102 1.9857688 4.8056564
2.6848805 1.9807956 4.8025265
1.743142 1.9926478 4.8075061
1.7433064 2.0059402 4.8073521
1.7416446 2.0171201 4.8021379
1.0585697 2.0525317 4.8079224
1.0585628 2.0655854 4.8076134
1.7452381 2.0737576 4.8094149
1.7438742 2.0852456 4.8049488
1.7443204 2.0988915 4.8054638
1.0592941 2.1193175 4.8096948
1.7442892 2.1119654 4.8046441
1.7453552 2.1263762 4.8068361
1.9846845 2.1296682 4.8008161
1.7446072 2.1385794 4.8040056
1.9868281 2.1451228 4.8050528
1.7334588 2.1804018 4.8077383
1.2569669 2.2133911 4.8085713
1.2962961 2.2134557 4.8077397
1.2698694 2.2261412 4.8069506
1.2829601 2.2261331 4.8066015
1.9749681 2.2255142 4.8030472
1.9905782 2.2282467 4.8079991
1.9614508 2.2382796 4.8020663
1.2971538 2.2411208 4.8097453
1.9780109 2.2421262 4.8093829
1.375381 2.2928395 4.8032904
1.3879406 2.2919433 4.8009686
1.428365 2.3068647 4.802639
1.616534 2.3003998 4.8096447
1.5890493 2.3774517 4.801671
1.4428705 2.387789 4.8017383
1.1526982 2.3977261 4.8043771
1.2309754 2.397064 4.800766
1.2516711 2.3990688 4.8041706
1.2705454 2.397578 4.8005447
1.471248 2.3912623 4.8076191
1.311209 2.4000626 4.8041964
1.3316423 2.4014316 4.8062429
1.352572 2.4036455 4.8099647
1.4052315 2.4038484 4.8083472
1.9423901 2.4052129 4.8078895
1.1529986 2.4114513 4.8048792
1.2185476 2.4114864 4.8030286
1.2320883 2.4123368 4.8043165
1.2522384 2.4132638 4.8055358
1.2723308 2.4140615 4.8064795
1.2853593 2.4138894 4.8056927
1.0735797 2.4227889 4.8027015
1.0862244 2.4217811 4.8003697
1.112581 2.4221601 4.8004398
1.140426 2.4256873 4.8067298
1.1931422 2.4262292 4.8062854
1.2127045 2.4260044 4.8052349
1.1130143 2.4361961 4.8015437
1.1272169 2.438585 4.8059006
1.1407161 2.439414 4.8071694
1.9434307 2.4329357 4.8078208
1.1136471 2.4506812 4.8034887
1.7335548 2.6205363 4.8091936
1.7323403 2.6319215 4.804317
1.4899871 2.6507616 4.8034692
1.0786568 2.6709991 4.8086691
1.640607 2.6994302 4.8059468
1.0663459 2.7126145 4.8094554
1.9253223 1.4805868 4.8144426
1.7421992 1.4939164 4.8189631
1.9107089 1.4924988 4.8107066
1.9243953 1.4929618 4.8118377
1.972307 1.494539 4.8155527
1.7408131 1.5058135 4.8149357
1.9715919 1.5070941 4.8134847
2.5761726 1.5065808 4.8192949
1.7394211 1.5176848 4.8108845
1.9778036 1.519932 4.812119
1.9783942 1.5334845 4.8132167
1.9941053 1.5354916 4.8190742
1.9777935 1.5461134 4.8114018
1.9780953 1.5594459 4.8117771
2.5774324 1.560172 4.8186703
1.9669509 1.5872189 4.8163037
1.7544242 1.597887 4.8145523
1.9514344 1.5983617 4.810461
1.0595453 1.6097229 4.8152609
1.7530642 1.6097275 4.8105512
1.9680347 1.6012105 4.8185806
2.6176023 1.6001256 4.8132138
1.8720988 1.6108184 4.8107572
1.9521434 1.6120408 4.8118286
1.0590107 1.6219836 4.8128862
1.7429084 1.6255393 4.8186874
1.8857911 1.6244222 4.8115368
1.9527544 1.6256477 4.8129444
1.8668767 1.6381571 4.813684
1.0585914 1.6474768 4.8110747
2.6489909 1.6428406 4.816762
1.8667805 1.6511708 4.8130803
1.9528794 1.6519582 4.8124352
1.9675142 1.6532401 4.8156738
2.6194997 1.6541888 4.8132281
2.636929 1.6568261 4.819479
1.0592138 1.6615208 4.8139467
1.0733351 1.6631324 4.8186455
1.741781 1.6637669 4.8147182
1.8609217 1.6648868 4.8147149
1.9389275 1.6643378 4.8104134
1.9542717 1.6662484 4.8154478
1.9691875 1.6677709 4.8193426
2.6200385 1.6677575 4.8133149
1.8599981 1.6771559 4.8119454
1.9397681 1.6781625 4.8120756
1.9550306 1.6800129 4.8168845
1.954085 1.6923116 4.8141036
1.9686456 1.6935537 4.8171124
1.9531333 1.7045926 4.8112969
1.9666144 1.7049136 4.8116665
1.7541714 1.715446 4.8111558
2.0465932 1.7191129 4.8106613
1.9835536 1.7213414 4.8199406
1.9833056 1.7342571 4.8188367
1.7432259 1.74377 4.8167539
1.9828713 1.7470056 4.8172679
2.5810268 1.7740608 4.8112993
1.7417731 1.7815959 4.8116055
1.0589132 1.8179086 4.8124161
1.7435566 1.8227389 4.815309
1.0589701 1.8310785 4.812604
1.0601282 1.8461677 4.8177962
1.7421001 1.8474072 4.8103991
2.5703433 1.8420514 4.8124061
1.0591723 1.8575778 4.8133531
1.0588071 1.8830781 4.8114791
1.7302891 1.8881011 4.8130274
1.7328652 1.904037 4.8197174
1.7429227 1.9137872 4.8102512
1.0589583 1.9225634 4.81177
2.5599983 1.9369668 4.8115754
1.746489 1.9439602 4.8190484
1.0737946 1.9519038 4.8192601
1.3297079 1.965703 4.8178024
1.7457364 1.9693677 4.8158493
1.0729728 1.9765773 4.8151875
1.9980088 1.9721622 4.8106418
1.7451944 1.9818752 4.8137712
1.9846936 1.9851354 4.8102388
1.0739425 1.9914593 4.8193407
1.0734985 2.003726 4.8171248
1.2972249 2.0054238 4.8183904
1.0727001 2.015316 4.8133039
1.0871532 2.017853 4.8192458
1.0725025 2.0280225 4.8121715
1.0865979 2.0299125 4.8165293
1.2829857 2.0298345 4.813664
1.0730042 2.0420554 4.8141699
1.087157 2.0440538 4.818749
1.2900844 2.0437925 4.8152342
1.0728003 2.0547485 4.8129826
1.0860382 2.0550337 4.8135047
1.1003516 2.0573227 4.8187242
1.2508628 2.0570292 4.8158836
1.269273 2.0550141 4.8108177
1.2977202 2.058614 4.8187823
1.0723431 2.0669487 4.8106441
1.0996293 2.0690615 4.8152595
1.7343715 2.0633252 4.8169518
1.2711763 2.0711987 4.8176627
1.2902524 2.0702562 4.8150997
1.7334852 2.0753999 4.8138094
1.0856197 2.0803983 4.8110542
1.1007487 2.0842705 4.81986
1.2519364 2.0850072 4.8192616
1.2707223 2.0835569 4.8155422
1.2832038 2.0825469 4.8129535
1.7341623 2.0893452 4.8150005
1.0875307 2.0971618 4.819221
1.297901 2.0982246 4.8182206
1.0741544 2.1097341 4.8178515
1.7344427 2.1028199 4.8150721
1.2913148 2.1112819 4.8177996
1.7351878 2.1168652 4.8164186
1.0746837 2.123878 4.81989
1.2853711 2.1254058 4.8197966
1.7349896 2.1297643 4.8151269
1.0596659 2.1331425 4.8110394
1.7358302 2.1570904 4.8159299
1.7346065 2.1687076 4.8117366
1.0878959 2.1765001 4.8186364
1.2723192 2.1779771 4.8184104
1.0734469 2.1868808 4.8124185
1.1274136 2.1899619 4.818337
1.114508 2.1903706 4.8194652
1.2970209 2.2015941 4.8109975
1.088491 2.2170291 4.8199692
1.2192714 2.2162914 4.8157892
1.2447227 2.2149086 4.8121829
1.3517216 2.2184374 4.8171692
1.3649921 2.2186711 4.8173037
1.2512548 2.2279725 4.8113947
1.3243132 2.2296152 4.8130889
1.23356 2.2315245 4.8195472
1.3377055 2.2300766 4.8137226
1.3516517 2.2314434 4.8163056
2.69136 2.2363997 4.8127022
1.3106647 2.2418132 4.8108783
1.3308738 2.2427292 4.8122973
1.3525021 2.245976 4.8187094
1.1143208 2.281759 4.8151712
1.391423 2.2845697 4.8137646
1.5784328 2.3023474 4.815556
1.6033188 2.3002999 4.8100567
1.4590157 2.3927498 4.8111792
1.5137727 2.3961802 4.8157635
1.527266 2.3966932 4.8161869
1.3660051 2.4041698 4.810524
1.3801827 2.405982 4.8136554
1.4211392 2.4085453 4.8172274
1.715363 2.4019144 4.8168745
1.3010767 2.4187188 4.8148713
1.1544994 2.4277079 4.8103733
1.1810373 2.4283068 4.810801
1.3939568 2.4202111 4.8144083
1.7292039 2.4292023 4.815588
1.945286 2.4220288 4.8137565
1.2872751 2.4306202 4.8120155
1.7282389 2.4410357 4.8117232
1.2924978 2.611907 4.8185048
1.357933 2.6108944 4.8136549
1.722773 2.6110253 4.8185139
1.2786567 2.6237626 4.8154683
1.3725836 2.6268766 4.8169551
1.186156 2.6364965 4.8172708
1.1720065 2.6474917 4.8126664
1.0929104 2.6605117 4.8141699
1.1201245 2.6625803 4.8169794
1.0935371 2.675211 4.8158011
1.7104979 2.6788051 4.8146977
1.0939188 2.6893225 4.8163257
1.0798891 2.7003863 4.8118463
2.6181693 1.4682815 4.8220358
2.6333554 1.4693757 4.824347
2.6629524 1.4711038 4.8273754
2.5909934 1.4810854 4.8224854
2.5764601 1.4935402 4.8205485
2.5934539 1.49572 4.8263593
1.9951583 1.52318 4.8219743
1.0623618 1.5484312 4.8276925
1.9948757 1.5492057 4.82058
1.0616941 1.5605639 4.8247433
1.7430093 1.5601223 4.8201938
1.9963691 1.5634961 4.8238254
1.0615337 1.5734321 4.8240972
1.7452431 1.5752406 4.8261542
1.9827508 1.5762433 4.8227515
2.5928681 1.5747315 4.8207231
2.6254847 1.5784321 4.8293977
1.0606533 1.5852202 4.8201675
1.7460068 1.5890547 4.8280334
2.6080906 1.5891703 4.8222785
2.6225195 1.5898905 4.8231091
1.983851 1.5902528 4.8250518
1.9854872 1.6047096 4.8286471
1.073923 1.637853 4.8212156
1.9833645 1.6423885 4.8222408
1.0872005 1.6512165 4.8220639
1.9837906 1.6558758 4.8228469
1.0876825 1.6650515 4.824234
1.7336376 1.6685362 4.8288517
1.9859279 1.6708081 4.8276086
2.000066 1.6716304 4.8294463
1.7341007 1.6821158 4.8298488
1.9698634 1.6814722 4.8205543
1.7339962 1.6951475 4.8292522
1.9856564 1.6968728 4.826026
1.0889398 1.7063314 4.8298621
1.7443068 1.7055154 4.8207765
1.9846978 1.7091942 4.823215
1.0745187 1.7173764 4.824028
1.7446772 1.7189924 4.8214688
1.073893 1.729471 4.8212085
1.7444773 1.7319086 4.8205719
1.0886484 1.7452188 4.828536
1.3121576 1.7589507 4.8292742
1.7345767 1.7614034 4.8291922
1.2985796 1.7714524 4.8275537
1.3115442 1.7712417 4.8268785
1.3251225 1.7718557 4.8284488
1.0747263 1.783233 4.824852
1.1545006 1.7849492 4.8292785
1.2920268 1.784579 4.8274989
1.3116046 1.7844371 4.8269577
1.3318815 1.7852381 4.8289571
2.6038568 1.78062 4.827652
1.0872549 1.7953765 4.8221836
1.1013637 1.7970165 4.8265591
1.1544198 1.7979405 4.8288579
1.1677456 1.798254 4.8296437
1.3317229 1.7981424 4.8282142
1.3517182 1.7985553 4.8291321
2.5907853 1.7940501 4.8285141
1.074249 1.8086392 4.8225994
1.0874772 1.8088444 4.8231087
1.1011199 1.8097259 4.8254204
1.1273038 1.809659 4.8251452
1.1405751 1.8099111 4.8257647
2.674437 1.8099881 4.8252549
1.1540074 1.8104103 4.8270392
1.1672753 1.8106433 4.8275986
1.2728858 1.8115755 4.8294134
1.3114647 1.8104717 4.8261247
1.3316534 1.8111641 4.8277836
1.3513333 1.8111606 4.8275709
1.7327003 1.8119917 4.8224173
1.0738012 1.820979 4.820518
1.114098 1.8226125 4.8247066
1.1270539 1.8223614 4.8239851
1.14693 1.8226984 4.8247862
1.311695 1.8239043 4.8268003
1.0752832 1.8366041 4.8271074
1.1147933 1.8368635 4.8276305
1.1873556 1.8374902 4.828887
1.2336273 1.8379952 4.8298931
1.3321183 1.8380444 4.8291049
2.5907192 1.8338495 4.8252707
1.0747254 1.8487564 4.8245125
1.1678215 1.85085 4.829514
1.1873143 1.8505452 4.8285871
1.3515413 1.8507975 4.827703
1.3648752 1.8510805 4.828279
2.5766482 1.8598477 4.8231568
1.0744693 1.8614175 4.8232641
1.2334352 1.8639486 4.8288178
1.3390539 1.8648053 4.829947
1.3509489 1.8631002 4.8253584
1.378314 1.8646237 4.8289623
1.0743619 1.8743322 4.8226752
1.1871378 1.8764999 4.8275633
1.2729101 1.8772136 4.8286295
1.2859727 1.8771204 4.828249
1.3382728 1.8768355 4.8268943
1.3516766 1.8772243 4.8277249
1.3715882 1.8775276 4.8282366
2.5760376 1.8726814 4.8209195
1.0738962 1.8866144 4.8204641
1.1670107 1.8888969 4.8257146
1.1802826 1.8891457 4.8262486
1.0738832 1.8996861 4.8202777
1.194224 1.890449 4.8294754
1.2336313 1.8904881 4.8292208
1.2729253 1.8903565 4.8284793
1.3653649 1.8911233 4.8292832
1.7219008 1.893294 4.8267264
1.1793945 1.9008269 4.8224359
1.1939991 1.9032118 4.8283839
1.2733523 1.904116 4.8298831
1.2855226 1.9026942 4.826117
1.7227228 1.9073451 4.8285532
1.0884839 1.9154212 4.8267226
1.147028 1.9146044 4.8242331
1.1924285 1.91381 4.8218298
1.2717541 1.9148349 4.8235803
1.3521272 1.9172256 4.8285584
2.5676947 1.9161898 4.8283834
1.0882077 1.9280444 4.8253403
1.179435 1.9270983 4.8222203
1.1929797 1.9278026 4.8238602
1.2527966 1.9290452 4.8263369
1.312259 1.9296513 4.8271003
1.1790349 1.9395431 4.820374
1.3521423 1.9303722 4.8283296
1.7355398 1.9332656 4.8261495
1.074782 1.9405932 4.8238721
1.1545032 1.9423645 4.8276486
1.2329336 1.9418763 4.8256187
1.2464266 1.9424573 4.8269105
1.2731798 1.9432284 4.8285022
1.2991424 1.9427861 4.8270478
1.3507719 1.9415278 4.8231325
1.3644934 1.9423873 4.8250585
1.3914993 1.943447 4.8272471
1.2199988 1.9552876 4.8262639
1.3500268 1.9535614 4.8201599
1.3634901 1.9540672 4.8211899
1.3907396 1.9555036 4.8242779
1.7475456 1.9582723 4.8214164
2.5820131 1.9568574 4.8252015
1.0741668 1.9656789 4.8207507
1.2060331 1.9670278 4.8227892
1.2990135 1.9688315 4.8259969
1.3112231 1.9674582 4.8224249
1.3504691 1.9673108 4.8214231
1.3709898 1.9685296 4.82407
1.2335194 1.9821607 4.8271427
1.3117028 1.9812927 4.8238811
1.3312171 1.9810483 4.8229609
1.352347 1.9831735 4.827806
1.3645085 1.9817623 4.8241301
1.0886642 1.9944279 4.8264203
1.2071658 1.9951143 4.8268013
1.3256072 1.9955877 4.8261962
1.0884695 2.007184 4.8253298
1.1020883 2.0080957 4.8273978
1.1546824 2.0082641 4.8272405
1.1013751 2.0199063 4.8240237
1.1418728 2.0219429 4.828464
1.1678339 2.0214288 4.8269191
1.1071794 2.0316334 4.8204069
1.127887 2.0335214 4.8246727
1.1548142 2.0347357 4.8272414
2.5836337 2.0379679 4.8206754
1.107363 2.0450728 4.8209333
1.127208 2.0454028 4.8214808
1.1816492 2.0488646 4.8289742
1.2078626 2.048774 4.8283854
1.2202525 2.0475273 4.8252459
1.1141168 2.0585451 4.821435
1.1276815 2.0593729 4.8232141
1.7226942 2.0519335 4.8222671
1.31224 2.0608251 4.8237176
1.7243061 2.067013 4.8261347
1.1421509 2.0749412 4.8284597
1.3119019 2.0734112 4.8220682
1.1944151 2.087605 4.8262758
1.2133242 2.0862596 4.8228407
1.2335142 2.087116 4.8244925
1.3125892 2.087621 4.8241792
1.353366 2.0897651 4.8283038
1.7245877 2.0805125 4.8262558
1.1082418 2.0991468 4.8235316
1.2198333 2.099282 4.8221359
1.2528422 2.099632 4.8223524
1.3118817 2.0996122 4.8211408
1.7250978 2.0942936 4.8270016
1.1689379 2.102134 4.8295574
1.1812729 2.1007054 4.8260641
1.2072142 2.1001542 4.8243666
1.2335757 2.1003416 4.8243437
1.3470341 2.1032755 4.8288527
1.0881721 2.1115077 4.8217373
1.1163579 2.1152141 4.8298564
1.1290642 2.1144059 4.8278189
1.1550192 2.1138377 4.8261247
1.1673621 2.1124146 4.8226643
1.1943539 2.1137438 4.8252745
1.2723284 2.1124198 4.8208017
1.3266209 2.1153069 4.8262982
1.1161848 2.128016 4.8287473
1.1289955 2.1274037 4.8271594
1.1418993 2.1269786 4.8259926
1.1808202 2.1261377 4.8234434
1.2723918 2.1256404 4.8206015
1.311968 2.1259854 4.8205466
1.3262677 2.1278729 4.8245401
1.1937841 2.1389687 4.8221569
1.2074755 2.1399772 4.8241963
1.2337403 2.1399906 4.82373
1.3124579 2.1399016 4.8218718
1.3871036 2.130527 4.8291426
1.7262874 2.1352613 4.8281832
1.089644 2.1406169 4.8275638
1.2211732 2.140975 4.8262043
1.2469795 2.1401799 4.8238993
1.3327897 2.1409309 4.8237381
1.0754813 2.1516826 4.822751
1.0890629 2.1525955 4.8246102
1.1545981 2.1524231 4.8231835
1.1676443 2.1522789 4.8226337
1.2739122 2.1544423 4.8254442
1.2928122 2.1531026 4.8220038
1.3467484 2.1553774 4.8258667
1.3668495 2.155988 4.8267393
1.3805637 2.1568754 4.8283868
1.0882789 2.164156 4.8207407
1.1153915 2.1658657 4.8241448
1.1288246 2.1664543 4.825243
1.1542034 2.1648014 4.8211088
1.1890154 2.1684704 4.8286996
1.2083371 2.1677685 4.8267579
1.3125827 2.1663523 4.8213277
1.3268921 2.1682804 4.8253093
1.3530846 2.1681368 4.8243294
1.3669828 2.1693401 4.8266697
1.1146935 2.1776226 4.8207021
1.1411796 2.1780989 4.8213105
1.3942946 2.1709232 4.8294883
1.7258859 2.1742799 4.8247576
1.1827645 2.1821983 4.8296809
1.3538296 2.1824725 4.8264413
1.3879155 2.1843884 4.829793
1.3535819 2.1952124 4.8249912
1.2079937 2.2065377 4.8239374
1.3815873 2.2242525 4.8290606
1.7012929 2.229275 4.8277688
1.13011 2.234617 4.828464
1.1962556 2.2354033 4.8288264
1.2085443 2.2338121 4.8250952
1.2208098 2.2322128 4.8213387
1.3668511 2.234833 4.8232522
1.3879769 2.2370992 4.8275604
1.1163046 2.2464273 4.8253536
1.3875587 2.2495759 4.8254519
1.6999906 2.2407436 4.8232141
1.116771 2.2605023 4.826858
1.3942273 2.2628727 4.8248868
1.4221593 2.2654521 4.8295341
1.6883366 2.2691462 4.8264947
1.4067318 2.2881138 4.8208022
1.4352458 2.2916477 4.8273458
1.4747914 2.3048651 4.8252263
1.4878107 2.3046303 4.8242226
1.5673003 2.3053243 4.822382
1.5419961 2.399122 4.8204551
1.5583397 2.4039984 4.8296366
1.4373471 2.41366 4.826932
1.545004 2.4170039 4.8288875
1.7185717 2.4196239 4.8247795
1.409673 2.4246182 4.82266
1.4304485 2.4263229 4.8252392
1.42405 2.4398451 4.8252473
1.5453919 2.4704337 4.8259411
1.3741772 2.6167159 4.8237777
1.1077698 2.6645708 4.8210626
2.6514564 1.4720776 4.8319178
2.6096752 1.4974343 4.8306384
2.6271865 1.5263968 4.8357048
1.076979 1.5374545 4.8343973
1.0772923 1.551038 4.8358979
1.0769272 1.5636441 4.834342
1.3272194 1.5644432 4.8373208
1.3406012 1.5647204 4.8381653
2.0123975 1.5657462 4.8302951
2.598881 1.5651278 4.8327131
1.0771265 1.5770676 4.8353186
1.3144192 1.5779951 4.8385882
1.3278104 1.5782844 4.8394618
1.7354293 1.5782517 4.8356495
1.9992241 1.5788813 4.8303566
1.3004839 1.590174 4.8356514
1.3146967 1.6309071 4.8394918
1.1160921 1.6420702 4.8337259
1.1299634 1.6431414 4.8369036
1.1437359 1.6440459 4.8395863
1.3146272 1.6439648 4.8391876
1.3406692 1.6436489 4.8381615
1.1024603 1.6544529 4.8315525
1.1301998 1.6566253 4.8379378
1.1438124 1.6573014 4.8399267
1.3132473 1.6553695 4.834043
1.3275162 1.6567835 4.838129
1.3409135 1.6570925 4.8389769
1.1155409 1.667504 4.8313789
1.1290849 1.6681186 4.8331709
1.1431763 1.6695182 4.8372388
1.2484356 1.6696612 4.8375549
1.2734659 1.6680106 4.8326969
1.2930473 1.6678579 4.8321896
1.1701242 1.6704599 4.8399711
1.2095464 1.6704158 4.8398128
1.2355998 1.6700794 4.8387952
1.3144718 1.6700554 4.8384938
1.3276879 1.6701407 4.838685
1.1158172 1.6810427 4.8325891
1.1566362 1.6831162 4.8385592
1.1697505 1.683068 4.8384132
1.1825773 1.6826121 4.8370886
1.2349813 1.6823792 4.8363318
1.2538348 1.6812303 4.8329716
1.2730163 1.6805438 4.8309336
1.3475143 1.6834123 4.838872
1.7240423 1.6851277 4.8388171
1.987694 1.685454 4.8314538
1.1024865 1.6938624 4.8317165
1.1291035 1.6944007 4.8332543
1.1497003 1.6957257 4.8370304
1.1694283 1.6957424 4.8370605
1.1893384 1.696018 4.837821
1.2734054 1.6941831 4.8323503
1.2870526 1.6948622 4.8342381
1.3142951 1.6961124 4.8376894
1.3269504 1.6954848 4.8358274
1.3406006 1.6961282 4.8375921
1.7244104 1.6986479 4.8395543
1.1157701 1.7072222 4.8323841
1.1421136 1.7073442 4.8327122
1.1689906 1.7082407 4.8352218
1.1818129 1.7077832 4.8339024
1.2089645 1.7090291 4.837378
1.2490336 1.709898 4.8397231
1.2674114 1.7080811 4.834496
1.306814 1.7080688 4.8342767
1.7349254 1.7091963 4.8315301
3.1242697 1.7106984 4.831605
1.1296929 1.721554 4.8357553
1.1489401 1.7208614 4.8337803
1.1681608 1.7201517 4.831749
1.2083991 1.7213624 4.8350606
1.2351441 1.7220147 4.8368101
1.7351274 1.7225372 4.8317685
1.1028377 1.7337843 4.8332367
1.1488788 1.7339004 4.8334951
1.1678261 1.7327783 4.8303194
1.2081723 1.7341698 4.8340926
1.2620105 1.7359492 4.8388476
1.7351632 1.7357149 4.831532
1.1288693 1.7465484 4.8321633
1.1490612 1.7473036 4.8342142
1.1684281 1.7467983 4.8327637
1.1883035 1.7470565 4.8334179
1.2087979 1.7482052 4.8365326
1.2227554 1.7493706 4.8397107
1.2487588 1.7489501 4.8384271
1.2677131 1.7478905 4.8353882
1.3386825 1.7461897 4.8302002
1.7359111 1.7496108 4.833272
1.1684159 1.7599066 4.8326535
1.2998011 1.7599916 4.832231
1.1291742 1.7601483 4.8334274
1.1490736 1.7604536 4.8342171
1.1954629 1.7610594 4.8357315
1.2094747 1.7623284 4.8391685
1.2291212 1.7622173 4.8387737
1.2479908 1.7610093 4.8353519
1.2612402 1.7611614 4.8356977
1.2870603 1.7605277 4.8337941
1.3797656 1.7614818 4.8356786
1.3936152 1.7623738 4.8380013
1.7243245 1.7643617 4.8376703
1.155288 1.7730398 4.8326492
1.1682888 1.7728404 4.8320589
1.1953924 1.7740898 4.8353653
1.208891 1.7746162 4.8367438
1.2485713 1.7749691 4.837501
1.2735825 1.7731842 4.8324652
1.2862111 1.7724887 4.8304772
1.3389541 1.7727933 4.8308973
1.3663177 1.7742251 4.8345642
1.3802307 1.7752181 4.8371444
1.7227521 1.7759006 4.8328905
1.1682677 1.7859331 4.8318939
1.1820983 1.7869914 4.8347058
1.2092155 1.7882342 4.8379493
1.2729753 1.7854602 4.8300328
1.3660674 1.7870332 4.8335071
1.3932486 1.7881933 4.8363705
1.7220469 1.7883158 4.8305364
2.6068962 1.795995 4.8322759
2.6226892 1.7977023 4.8353696
1.3802402 1.8015158 4.8368139
1.7224441 1.8018737 4.8312693
1.1951534 1.8131301 4.8341017
1.2080286 1.8127364 4.832973
1.2280985 1.8132795 4.8342991
1.2470529 1.812185 4.8312407
1.2603595 1.8124384 4.83182
1.7248898 1.8175961 4.8377466
2.6103759 1.8117064 4.8376994
2.6308136 1.8120217 4.8362484
1.1944464 1.8251816 4.8311191
1.2079411 1.8257332 4.8324995
1.2470859 1.8253585 4.8312273
1.2601579 1.8252729 4.8308973
2.6112561 1.825636 4.8382788
1.1023394 1.8379734 4.8306098
1.1294627 1.8393878 4.8342152
1.1680291 1.8380569 4.8305001
1.2077359 1.8385487 4.831543
1.2475827 1.8392159 4.833003
1.2670467 1.8388708 4.8319273
1.3068374 1.839416 4.8329921
1.1098034 1.8525963 4.8344059
1.1293625 1.8523552 4.8336768
1.2276828 1.8520505 4.8322301
1.2473722 1.8520337 4.8320231
1.2610418 1.8528209 4.8339648
1.313614 1.8528405 4.8334956
1.3332169 1.852692 4.8328872
1.3791064 1.8525637 4.8319831
1.3945184 1.85559 4.8397126
1.1031746 1.8656286 4.8340707
1.1416973 1.864177 4.8300834
1.2079369 1.8651102 4.8320498
1.2214949 1.8657587 4.8336272
1.2470993 1.8647536 4.8307905
1.2601181 1.8645878 4.8302379
1.2866729 1.8650153 4.8310866
1.3071436 1.8661176 4.8337345
1.3259534 1.8648489 4.8302178
1.103585 1.8794591 4.8357549
1.2280821 1.878922 4.8334765
1.2476397 1.8786929 4.8327045
1.2602533 1.8779134 4.8305669
1.2999387 1.8783344 4.8312316
1.3133016 1.8786613 4.8319216
1.3262293 1.8783656 4.8310022
1.4070437 1.8810494 4.8368254
1.1029531 1.8915116 4.8328519
1.208403 1.8920957 4.8335772
1.2868913 1.8915906 4.83149
1.3136288 1.8922634 4.8329
1.3523985 1.8913546 4.83006
1.407603 1.8949497 4.8384743
1.6995556 1.8977029 4.8388305
1.7114875 1.896323 4.8348894
2.5817626 1.8901471 4.8305416
1.3002144 1.9049953 4.8318048
1.34013 1.9057127 4.8331113
1.3726388 1.9052298 4.8314075
1.3934354 1.9067216 4.8348918
1.4069178 1.9071734 4.8358259
1.7117517 1.9097798 4.8351631
2.5686619 1.9036064 4.8313379
1.3139626 1.9190189 4.8336406
1.3725332 1.9182162 4.8307562
1.3922983 1.9182981 4.8306465
1.7236166 1.921489 4.8305678
2.5869491 1.920606 4.8379869
1.2999271 1.9308313 4.8302364
1.3661914 1.9316702 4.8313756
1.3928363 1.9321769 4.8322115
1.725446 1.936697 4.8351965
1.1028796 1.9438977 4.8319077
1.1298233 1.9450618 4.8345952
1.1420144 1.9434441 4.8304548
1.1107061 1.9592439 4.8371563
1.1303263 1.9590693 4.8365555
1.1492293 1.9576806 4.8329406
1.2610279 1.9578694 4.8321624
1.4067415 1.9595129 4.8339443
1.7272674 1.9519235 4.8397865
1.4214104 1.9616086 4.8388724
1.1036984 1.9716163 4.8351221
1.2473899 1.9702156 4.8301315
1.3928095 1.9715517 4.8311291
1.4070761 1.9731272 4.8347464
1.4208975 1.9740549 4.8367658
1.1100936 1.9844365 4.8340793
1.1297356 1.9843154 4.8335967
1.1427866 1.9841598 4.833086
1.3797067 1.9847468 4.8311658
1.3938426 1.9861609 4.8343635
1.4074707 1.9868319 4.8357415
1.1095624 1.9966172 4.831542
1.3467785 1.9977803 4.8311625
1.3677882 1.9996752 4.8353925
1.3809143 1.999633 4.8350401
1.394484 2.0002279 4.8362236
2.6486781 2.0069423 4.839355
1.3278635 2.0121291 4.8340802
1.3481674 2.012989 4.8357925
1.342535 2.027571 4.8389711
1.3815303 2.0268352 4.8364387
1.168824 2.0362735 4.8307304
1.188759 2.0366673 4.8314047
1.3808782 2.0390272 4.8337502
1.1556803 2.0493925 4.8305731
1.1690491 2.0497994 4.8313603
1.342388 2.0405071 4.8380609
1.7119253 2.0416293 4.8301682
1.1957847 2.0505829 4.8328471
1.3486584 2.0531926 4.8364196
1.3676598 2.0520804 4.8333898
1.3877083 2.0525522 4.8340783
1.7136036 2.0568097 4.8342838
1.1699753 2.0645673 4.8348799
1.1824232 2.0633428 4.831821
1.3684511 2.0664234 4.8357697
1.3874338 2.0652893 4.832674
1.1561111 2.0764284 4.8317461
1.1693251 2.0765572 4.8318596
1.3545835 2.078496 4.8330975
1.3811233 2.0788426 4.8333216
1.7138824 2.0703251 4.8344278
1.4093252 2.0816314 4.839201
1.3952183 2.1065612 4.8353276
1.4096501 2.1084547 4.839354
1.3941599 2.1181133 4.8311577
1.4097419 2.1217649 4.8391657
1.7273452 2.1233873 4.8318825
1.4099588 2.1352661 4.8393917
1.409272 2.1473944 4.8364949
1.7169777 2.1400862 4.8397083
1.3952367 2.1592298 4.8333158
1.7167653 2.1530242 4.8383665
1.7279404 2.1504934 4.8320646
1.4094818 2.1608841 4.8366652
1.4369658 2.1625879 4.8397379
1.450187 2.1626394 4.8394661
1.7164719 2.1658571 4.8367796
1.7274953 2.1631234 4.83005
1.4085331 2.1725912 4.8328376
1.4300449 2.1752687 4.8382339
1.4499443 2.1754563 4.8380623
1.7147146 2.1768265 4.8310432
1.1713595 2.2117653 4.8361893
1.3968486 2.2144258 4.836576
2.7290561 2.2184994 4.8313217
1.1575928 2.2237692 4.8334403
1.3957052 2.2257779 4.831986
1.1513242 2.2375226 4.8343678
1.1712873 2.2379463 4.8348861
1.6903518 2.2322462 4.8348546
1.4108524 2.242084 4.8377261
1.4246173 2.2429907 4.8392668
1.689582 2.2444263 4.8318043
1.4100795 2.2540314 4.8344035
1.4239037 2.2550492 4.8361626
1.6894885 2.257498 4.8306742
1.4091132 2.2656538 4.8304005
1.437987 2.269645 4.8380418
1.5186471 2.2718666 4.8398986
1.4366816 2.2807624 4.8329215
1.4698718 2.2943006 4.8317413
1.6257828 2.3003464 4.8381014
1.6369705 2.3106916 4.8305655
1.5729823 2.4061909 4.8334026
1.586938 2.4073048 4.8349853
1.4519821 2.4160647 4.8311954
1.4730165 2.418087 4.8343925
1.6487557 2.4106579 4.8386092
1.6685121 2.4104965 4.8371887
1.9671793 2.4194469 4.8353281
1.656297 2.4252436 4.8398681
1.6829468 2.4254506 4.8387761
1.4526575 2.430392 4.8325047
1.9693208 2.4353838 4.8392677
1.4395777 2.4438152 4.832551
1.5487338 2.4493074 4.8385239
1.5619289 2.462471 4.8366561
1.6608995 2.6312463 4.8345566
1.5131897 2.6418784 4.8374672
1.5120014 2.6530643 4.8323154
1.5262375 2.6547511 4.8346119
1.3487084 1.5270364 4.8437185
1.0916798 1.5396582 4.8414044
1.3285424 1.5396994 4.8421669
1.3548706 1.5397147 4.8422036
1.1053494 1.5403726 4.8437176
1.1321621 1.5410345 4.845921
1.1522114 1.5414326 4.8472557
1.1916206 1.5412881 4.8469419
1.3421875 1.5402594 4.8439279
1.3691605 1.5409893 4.8462057
1.3830711 1.5418166 4.8487935
1.0919969 1.5532603 4.8429008
1.1124312 1.5542263 4.8460035
1.1323851 1.5545038 4.846951
1.145191 1.5540076 4.8454514
1.1985564 1.5549115 4.848443
1.3280725 1.5523021 4.8404479
1.348439 1.5530381 4.842731
1.3694611 1.554493 4.84725
1.396571 1.5553477 4.8498654
1.0924654 1.5670878 4.8450642
1.1191894 1.5676352 4.8468647
1.1528022 1.5685675 4.8498669
1.1714928 1.5671256 4.8454599
1.1844344 1.5668275 4.8445725
1.3687832 1.5668827 4.8448181
1.3828895 1.5679501 4.8480949
1.3545862 1.5788385 4.8411183
1.1522501 1.5809817 4.84759
1.1713811 1.5801359 4.8450441
1.1856232 1.5815717 4.8494849
1.3897475 1.5814269 4.8489809
1.7254837 1.581188 4.8449059
1.1522691 1.5941761 4.8477211
1.3820964 1.5933716 4.8452196
1.1454424 1.6070058 4.8467298
1.1914587 1.6069007 4.8464913
1.3283432 1.605217 4.841351
1.3483745 1.6055715 4.8423715
1.3684001 1.6059101 4.8433328
1.3955712 1.6068876 4.8461843
1.7395841 1.6083814 4.8467784
1.1317427 1.6194125 4.8444705
1.3149474 1.6180707 4.8404574
1.3289776 1.6191394 4.8436279
1.3478096 1.6180459 4.840291
1.3681532 1.6187731 4.8424006
1.3823245 1.6199598 4.8459024
1.1454782 1.620221 4.8469191
1.1308011 1.6312121 4.8404675
1.1446908 1.6322628 4.8436112
1.1965894 1.6312441 4.8406291
1.3283489 1.631523 4.8412852
1.3486407 1.6321985 4.8432245
1.3690628 1.6330111 4.845561
1.1832966 1.6441976 4.8400583
1.3282802 1.6445879 4.8409801
1.3548275 1.6448762 4.8417263
1.3686104 1.6456289 4.8438845
1.3824633 1.6464504 4.8462405
1.4099206 1.6477568 4.8499422
1.3548838 1.6580966 4.8418536
1.3690557 1.659326 4.8453832
1.3954 1.6593374 4.8452654
1.7250394 1.6597718 4.8421855
1.4096546 1.6606178 4.8489265
1.2233311 1.6712812 4.8423071
1.3479462 1.6708038 4.8405142
1.3684638 1.6717644 4.8431959
1.3959821 1.6731968 4.8471894
1.4227823 1.673731 4.8485503
1.7254201 1.6733063 4.8429785
1.1964689 1.6836648 4.8401051
1.3959026 1.686268 4.8468027
1.3809184 1.6972073 4.8404188
1.4095514 1.7000091 4.8482227
1.2360104 1.7100756 4.8402705
1.3678168 1.7104232 4.8405857
1.7255664 1.7129557 4.8424969
1.2230438 1.723485 4.8409925
1.7250463 1.7256045 4.8407168
1.2228155 1.7363098 4.8400221
1.4361473 1.7398156 4.8483472
1.7249967 1.7387198 4.8402491
1.4229685 1.7529888 4.8483162
1.4074707 1.7632569 4.8402934
1.4297296 1.7663751 4.8486495
1.2230824 1.7761372 4.8408327
1.3947376 1.7769488 4.841732
1.4085391 1.7777567 4.8437934
1.4299487 1.7798214 4.8491993
1.4896439 1.7802683 4.849638
1.4225564 1.7919891 4.8463473
1.4758531 1.7927134 4.8476081
1.3950751 1.803696 4.8425283
1.4090143 1.8046883 4.8450398
1.7136351 1.8064511 4.8439326
1.4100635 1.8192078 4.848443
1.7140166 1.8200347 4.844625
2.648736 1.828513 4.8420286
1.4093363 1.8314387 4.8457165
1.7139212 1.8331145 4.843956
1.4089329 1.8440795 4.8440943
1.4234122 1.8457761 4.8483739
2.6301019 1.8428235 4.8458548
1.4086561 1.8568798 4.8428979
1.4083748 1.8696688 4.8416743
1.4237092 1.872521 4.8488741
2.6045122 1.8703179 4.8488359
1.4238828 1.885931 4.8491936
1.5560403 1.8862751 4.8475742
1.5700887 1.8873069 4.8499331
1.6880363 1.8863842 4.8444467
1.4222736 1.8969666 4.8434196
1.6888329 1.9004656 4.8462934
2.588697 1.908564 4.8424091
1.4227675 1.9107965 4.8448081
1.5967429 1.9140012 4.849319
1.7006667 1.912124 4.8415346
1.5829682 1.9264944 4.8474836
1.6763437 1.9408579 4.8473549
1.6892626 1.9405321 4.8461189
1.4358842 1.9502282 4.8433909
