ply
format ascii 1.0
comment PCL generated
element vertex 1523
property float x
property float y
property float z
element face 0
element camera 0
property float view_px
property float view_py
property float view_pz
property float x_axisx
property float x_axisy
property float x_axisz
property float y_axisx
property float y_axisy
property float y_axisz
property float z_axisx
property float z_axisy
property float z_axisz
property float focal
property float scalex
property float scaley
property float centerx
property float centery
property int viewportx
property int viewporty
property float k1
property float k2
end_header
1.0920618 0.1907624 2.7972698
1.1028074 0.1906461 2.7956314
1.1093765 0.19046792 2.7930512
1.0656383 0.19841093 2.7976401
1.0841973 0.1983244 2.7965708
1.0946796 0.19815546 2.7942598
1.1018957 0.19808583 2.7933204
1.0816478 0.20617005 2.7998116
1.0882595 0.20597944 2.7972701
1.1022552 0.2057503 2.7942424
1.1016948 0.21324168 2.7928252
1.0879545 0.22113404 2.7965035
1.0944587 0.22091095 2.793721
1.1017666 0.22085202 2.7930155
1.1090668 0.22079241 2.7922957
1.1165439 0.22076853 2.7920239
1.1242014 0.22078045 2.7922001
1.0663602 0.22900529 2.7995946
1.0814046 0.22896454 2.7992136
1.0918136 0.22875166 2.7966776
1.1030172 0.22870782 2.7962039
1.1094998 0.22847596 2.7933958
1.1179032 0.22864011 2.795439
1.1243621 0.22840707 2.7926049
1.0816381 0.23662926 2.7998316
1.0920043 0.23639973 2.7971802
1.1031661 0.2363448 2.7965903
1.1100173 0.23618346 2.7947097
1.1177782 0.23621655 2.7951312
1.1244227 0.2360149 2.7927601
1.0661933 0.24419701 2.7991831
1.0739852 0.24423677 2.7996995
1.0805215 0.24399239 2.7969437
1.0918268 0.24396813 2.7967358
1.1035813 0.24404275 2.7976542
1.1102524 0.243836 2.7953098
1.117923 0.24385013 2.7954998
1.1248477 0.24370246 2.7938232
1.0661438 0.25179911 2.7990668
1.0735801 0.25175682 2.7986531
1.0842278 0.2515769 2.7967241
1.1036251 0.25166166 2.7977731
1.1100217 0.25138631 2.7947342
1.118153 0.25150487 2.796082
1.1243376 0.25118688 2.7925563
1.0512819 0.25950429 2.7999461
1.0844412 0.25923482 2.7972894
1.0955234 0.2591553 2.7964931
1.1033882 0.25921533 2.7971787
1.1095095 0.25886774 2.7934465
1.1180071 0.25907555 2.7957213
1.1242846 0.2587696 2.7924278
1.3158542 0.25908896 2.7941248
1.066113 0.26701826 2.7990146
1.0736395 0.26699585 2.7988343
1.0835712 0.26662895 2.7950492
1.0944654 0.26650348 2.7937925
1.1025066 0.26660979 2.7949445
1.1099072 0.2665607 2.7944574
1.1169323 0.26642272 2.7930298
1.1245959 0.26643789 2.7932069
1.3166536 0.26685488 2.7957931
1.0588623 0.27472642 2.7999408
1.0657781 0.27454522 2.7981472
1.0730366 0.27445421 2.7972708
1.086447 0.27399704 2.7926893
1.0937632 0.27392623 2.7920039
1.1018008 0.27403578 2.7931571
1.1092896 0.2740083 2.7929039
1.316281 0.27438578 2.7949641
1.0509839 0.28227264 2.7992015
1.0585221 0.28225157 2.7990544
1.0657018 0.28213584 2.7979608
1.0762724 0.28191367 2.7958269
1.0863718 0.28157315 2.7925055
1.093779 0.28152394 2.792053
1.1017261 0.28161338 2.7929745
1.109032 0.28153887 2.7922592
1.1166067 0.28153309 2.7922225
1.0510749 0.28991169 2.7994618
1.0660602 0.28984356 2.7989192
1.0759664 0.28943577 2.7950435
1.0866497 0.28924221 2.7932324
1.1030107 0.28954679 2.7962489
1.1092256 0.2891835 2.7927539
1.1168021 0.28917775 2.7927172
1.315726 0.28947651 2.7937069
1.0657938 0.29738206 2.7982323
1.076189 0.29709941 2.7956367
1.0871007 0.29696253 2.7944059
1.0946044 0.29693541 2.794184
1.1019206 0.29685816 2.7934837
1.1098704 0.29695153 2.7943883
1.3163897 0.29722956 2.7950807
1.3260992 0.29770079 2.7993419
1.0664036 0.30516753 2.7998531
1.0764062 0.30476421 2.7962108
1.0879045 0.30478787 2.7964883
1.09469 0.30455869 2.7944117
1.1019166 0.30445457 2.7934802
1.3167285 0.30491504 2.7957611
1.0732996 0.31257236 2.7980244
1.0841242 0.3162033 2.7965488
1.0914646 0.3123244 2.7958915
1.101897 0.31584454 2.7934401
1.3152666 0.31597674 2.792583
1.3262426 0.31297281 2.7995579
1.0658094 0.32783058 2.798331
1.0729988 0.32389641 2.7972567
1.0829324 0.32509962 2.7967565
1.3153763 0.32740545 2.7927487
1.0655981 0.33537513 2.7977886
1.0725073 0.33515522 2.79599
1.0838757 0.33514193 2.7959309
1.0937895 0.33468357 2.7921367
1.0574074 0.34279737 2.7962244
1.0644989 0.34263086 2.7949073
1.0759161 0.34263402 2.7949905
1.086966 0.34252122 2.7941148
1.3264428 0.34350434 2.7997873
1.0506043 0.35067165 2.7983441
1.0579723 0.35058993 2.7977383
1.0645394 0.35024589 2.7950277
1.0760474 0.3502785 2.7953434
1.0870999 0.35016361 2.7944682
1.0940676 0.34996021 2.7928622
1.1015688 0.34992909 2.7926304
1.0436054 0.3584944 2.7999666
1.050723 0.35832334 2.7986779
1.0580047 0.35821033 2.7978394
1.076082 0.35789305 2.7954471
1.0871373 0.35777614 2.7945728
1.0938355 0.35748011 2.792274
1.1017902 0.35759607 2.7931976
1.0506608 0.36591378 2.7985284
1.0651294 0.36565238 2.7966077
1.0733694 0.36586726 2.7982912
1.0838568 0.36555246 2.7959175
1.0939579 0.36511517 2.7925932
1.0510272 0.37365565 2.7995238
1.0587505 0.37369293 2.7998469
1.0662068 0.3736361 2.799458
1.0838344 0.37314925 2.7958703
1.3162835 0.37326977 2.7943718
1.0659565 0.3811605 2.7988112
1.0732288 0.38103867 2.7979445
1.0836718 0.38069642 2.7954593
1.3162338 0.38086179 2.7942088
1.0731488 0.38861936 2.7977452
1.0832796 0.38815889 2.7944527
1.3163881 0.38851348 2.7944779
1.08391 0.39598888 2.7960875
1.3152704 0.39578414 2.7920363
1.0585011 0.40405792 2.7992392
1.0657837 0.40393132 2.7983897
1.0764245 0.40363896 2.7963929
1.0865067 0.40314484 2.7929831
1.3161484 0.40365398 2.793843
1.058226 0.41156417 2.7985218
1.0653325 0.41136792 2.7972112
1.0728704 0.41133994 2.7970436
1.0834069 0.41100711 2.7947969
1.3158604 0.41116962 2.7931643
1.0583816 0.41923705 2.7989461
1.0759985 0.41868401 2.7952969
1.0863942 0.4182936 2.7927001
1.06529 0.42656621 2.7971182
1.3155798 0.42628664 2.7924304
1.0511167 0.43460691 2.7998781
1.3157974 0.43396083 2.7928226
1.3267847 0.43506926 2.7997539
1.0657492 0.44197127 2.7983429
1.0759113 0.44145519 2.795084
1.0689039 0.44930893 2.7966514
1.0793705 0.44891372 2.7941964
0.21394609 0.45925477 2.7980895
0.24438789 0.4589704 2.7966666
0.25229654 0.45945314 2.7997019
1.0658313 0.4572278 2.7985721
1.0767342 0.45900166 2.7939339
1.0861726 0.46377051 2.7921302
1.0937824 0.46377599 2.7921541
0.24437554 0.46658704 2.7966824
1.0434445 0.46504259 2.7997525
1.0510964 0.4650577 2.7998669
1.0587448 0.4650709 2.7999649
1.0673709 0.46947244 2.7959607
1.0756927 0.46796477 2.7945225
0.24425447 0.47399193 2.7954519
0.25215888 0.47449058 2.7984858
1.0434661 0.47266689 2.7998216
1.0582552 0.4762722 2.7986751
1.0646812 0.47954336 2.7955544
1.0864058 0.47906074 2.7927239
1.326615 0.47312385 2.7989893
0.24421717 0.48155442 2.7951844
0.25209835 0.48201892 2.7979722
1.043061 0.4877069 2.7987506
1.0509733 0.48784485 2.7995608
1.0578408 0.48749933 2.7975826
1.065045 0.48731279 2.7965145
1.0788935 0.48669508 2.792954
1.3256322 0.48038974 2.7968211
0.24419953 0.48915395 2.7951438
1.0358335 0.49550405 2.7997911
1.0430645 0.49532026 2.798768
1.0499405 0.49497181 2.7968066
1.0606191 0.49462962 2.7948768
1.0760187 0.4947167 2.7953663
1.0865244 0.4943054 2.7930176
0.24422278 0.49683559 2.7955747
1.0355736 0.50299233 2.7990956
1.0426323 0.50272369 2.797612
1.0497663 0.50249487 2.7963459
1.0570638 0.50234711 2.795527
1.0681698 0.5022046 2.7947299
1.0789967 0.50193495 2.7932119
1.0865297 0.50190407 2.7930238
1.3344951 0.50370824 2.7988968
0.24428691 0.50460309 2.7964761
1.0205677 0.51071823 2.7996845
1.0278991 0.51057607 2.7989264
1.0351374 0.51038998 2.7979217
1.0422806 0.51016015 2.7966712
1.0493273 0.50988668 2.795176
1.0571449 0.50998908 2.795743
1.0679028 0.50967777 2.7940254
1.0789945 0.50953072 2.7932
1.0865289 0.50949985 2.7930124
1.3341191 0.51118767 2.7980042
0.24430656 0.51228136 2.7968683
1.027967 0.51822251 2.7991216
1.0351218 0.5179916 2.7978866
1.0424378 0.5178442 2.7970991
1.0492278 0.5174396 2.7949128
1.0602117 0.51723403 2.7937977
1.0712701 0.51706719 2.7928817
1.3335249 0.51857799 2.7966499
0.24430041 0.5237236 2.79705
1.0276055 0.52565038 2.7981429
1.0349299 0.52550352 2.7973723
1.0425032 0.52548444 2.7972791
1.0495541 0.52520412 2.7957859
1.0567675 0.52500862 2.79474
1.067613 0.52473348 2.7932577
1.0787069 0.52458405 2.7924354
1.3327131 0.52587557 2.7948349
0.24418421 0.53492635 2.79597
1.0269002 0.53289437 2.7962236
1.0343914 0.53283411 2.7959177
1.0413626 0.53250879 2.7942114
1.0495291 0.53279501 2.7957187
1.0600421 0.53234458 2.7933385
1.3327415 0.53350031 2.7947848
0.24404776 0.54225707 2.794574
1.0122819 0.54081881 2.7978573
1.0338477 0.54015398 2.7944467
1.0415878 0.54022497 2.7948186
1.0495844 0.54042691 2.7958651
1.0601438 0.53999329 2.7936015
1.0785724 0.53970599 2.792063
0.24416509 0.55015093 2.7960937
1.0194113 0.54816824 2.7965531
1.0262345 0.54774874 2.7944167
1.0332985 0.54746306 2.7929602
1.0412076 0.54762596 2.7937949
1.0525073 0.54757333 2.7935162
1.0635374 0.54738152 2.7925146
1.3417891 0.54931307 2.7972586
0.24387646 0.55712485 2.7929516
1.0198685 0.55602318 2.7978172
1.0261891 0.55532408 2.7942963
1.0341898 0.55553782 2.795378
1.0412498 0.55524671 2.7939067
1.0523793 0.55510306 2.7931685
1.3340559 0.55688941 2.7972019
1.3428611 0.55737954 2.7993777
0.23619118 0.56461114 2.7923667
0.24418154 0.5654555 2.7966306
1.0123055 0.56365985 2.7979493
1.0192285 0.56327868 2.7960608
1.0266448 0.56317371 2.7955434
1.0343095 0.56320548 2.7957022
1.0408586 0.56263369 2.7928503
1.0487676 0.56280005 2.7936685
1.3328962 0.56401968 2.7946408
1.34244 0.56483012 2.7983716
0.24427216 0.57330197 2.797847
1.0126629 0.57147115 2.7989469
1.0200928 0.5713672 2.7984433
1.0277696 0.57140201 2.7986169
1.0349331 0.57115299 2.7973912
1.0417445 0.57071471 2.7952304
1.0496603 0.57088351 2.796047
1.05645 0.57044184 2.7938588
1.333948 0.5720852 2.7967279
1.3427556 0.57258999 2.7989025
0.2363447 0.58023268 2.7945395
0.24436094 0.58114976 2.7990432
1.0278751 0.57907259 2.7989039
1.0353805 0.5790112 2.7986007
1.042111 0.57852036 2.7962105
1.0493422 0.57831258 2.7951877
1.0561314 0.57786596 2.7930014
1.3340431 0.5797469 2.7967997
1.3425343 0.58012152 2.7983079
0.24419333 0.58838522 2.7972939
1.0201268 0.58660841 2.7985394
1.0273001 0.58635658 2.7973313
1.0350579 0.58643955 2.7977204
1.0413607 0.58570313 2.794183
1.0493624 0.58592606 2.7952311
1.0564998 0.58566642 2.7939651
0.24417266 0.59596896 2.7972338
1.0204701 0.59441942 2.7994831
1.0348994 0.59395754 2.7972841
1.0414594 0.5933587 2.7944388
1.0523428 0.59306526 2.7930179
1.3341085 0.59501797 2.7966704
1.3432387 0.5956856 2.7995064
0.24406561 0.60333771 2.7961814
1.0278199 0.60187656 2.7987416
1.0348203 0.60151935 2.7970612
1.0418937 0.60120946 2.7955966
1.0491282 0.6009962 2.7945778
1.056008 0.60058439 2.7926271
1.3340789 0.60262585 2.7964699
1.3427866 0.6031124 2.798419
0.24412641 0.61112005 2.7970588
1.0349901 0.60922635 2.7975109
1.0415543 0.60861427 2.7946696
1.0485305 0.60825002 2.7929642
1.3330951 0.609797 2.7942593
1.3427522 0.61072409 2.7982016
0.24414311 0.6187945 2.7974303
1.0198761 0.61690098 2.7978344
1.0277272 0.61704427 2.7984715
1.0347304 0.61668003 2.7967944
1.0423182 0.61666697 2.79671
1.0492971 0.62009764 2.7949839
1.3336854 0.61768597 2.7953556
1.343135 0.61852741 2.7988524
0.2440736 0.62624866 2.7968106
1.0128394 0.62486547 2.7994351
1.0197277 0.62822282 2.7974122
1.0275465 0.6245454 2.7979665
1.0417824 0.63155478 2.7952313
1.0489366 0.63128299 2.7939882
1.3322693 0.62464082 2.7922292
1.3423477 0.6257897 2.7970538
0.24398136 0.63363945 2.7959301
1.0122666 0.6359235 2.7978354
1.019318 0.63937849 2.7962673
1.0267606 0.63547111 2.7957985
1.0407404 0.63851786 2.7924049
1.3336891 0.63292545 2.7950616
1.3421896 0.63333982 2.7965665
0.24392989 0.6411317 2.7955186
0.25193179 0.64208138 2.7997427
1.005178 0.64006418 2.7993083
1.0123467 0.64739102 2.7980416
1.0196218 0.6471765 2.7970893
1.0263004 0.64658922 2.7945166
1.0408852 0.64620262 2.7927713
1.325989 0.64431477 2.7949872
1.3337344 0.64056611 2.7950008
1.3423423 0.64103669 2.7967255
0.24372904 0.64822346 2.79339
0.25174636 0.64924049 2.7978554
1.0051075 0.65524459 2.7990925
1.0119789 0.6547628 2.797008
1.018836 0.65427911 2.7949104
1.0258473 0.65390068 2.7932591
1.0333534 0.65384108 2.7929685
1.3260385 0.6557681 2.7948537
1.3344734 0.65235448 2.7963121
1.3432283 0.64908963 2.7984133
0.24385746 0.66000021 2.7951369
1.0048997 0.66272026 2.7984998
1.0123513 0.66261357 2.7980251
1.0184625 0.6616379 2.7938638
1.0255568 0.66131049 2.7924438
1.0333159 0.66141349 2.7928417
1.3262727 0.66350406 2.7951853
0.24383491 0.67137372 2.7951488
0.25182772 0.66471839 2.7991226
0.99739277 0.67040354 2.7988088
1.0041939 0.66986048 2.7965133
1.0113109 0.66953468 2.7951229
1.0182506 0.66909736 2.7932599
1.3336451 0.67099786 2.7941494
0.23594272 0.67823225 2.7921088
0.24377568 0.67883176 2.7946482
0.98256087 0.67829067 2.7999692
0.9897911 0.67802477 2.7988532
1.0051267 0.67809546 2.7991021
1.0119209 0.67754519 2.7967939
1.0191163 0.67726958 2.7956183
1.0266374 0.67721313 2.7953448
1.0332254 0.67654634 2.7925386
1.343858 0.67992735 2.7990317
1.3520458 0.67256802 2.7999952
0.23610818 0.68632758 2.7942543
0.24373604 0.68634117 2.7943728
0.98956829 0.6854825 2.7982082
0.99695224 0.68532449 2.797539
1.0050678 0.68566823 2.7989185
1.0123596 0.68544888 2.7979877
1.0191435 0.68489146 2.7956676
1.0263312 0.68461174 2.7944791
1.0340153 0.68466479 2.7946482
0.23604782 0.69376993 2.7937188
0.24384202 0.6942628 2.7957723
0.25171015 0.6949299 2.7985315
0.9977026 0.69345468 2.7996325
1.0050859 0.69329309 2.7989473
1.0130404 0.6935249 2.7998502
1.0195813 0.69279265 2.796844
1.0268573 0.69256717 2.7958846
1.3420821 0.69427538 2.7949483
0.23598602 0.701204 2.7931657
0.24375725 0.70164198 2.7949772
0.25166601 0.70243716 2.7982185
1.0123942 0.70069259 2.7980306
1.019681 0.70046818 2.7970872
1.027043 0.70029837 2.7963576
1.0339766 0.69984102 2.7944708
1.0408126 0.69932485 2.7923427
1.3427138 0.70222908 2.7960751
0.23588213 0.70850772 2.7921126
0.24367103 0.70901155 2.7941651
0.25168526 0.71012062 2.7986124
0.25940904 0.71036905 2.7996585
1.0130639 0.70877135 2.7998574
1.0196923 0.70808375 2.797085
1.0268887 0.70779794 2.7958992
1.0336548 0.70722181 2.7935581
1.334083 0.70932388 2.794148
0.24356246 0.71631008 2.7930954
0.25163803 0.71761566 2.7982643
1.0054374 0.71638089 2.7998481
1.0120784 0.71568966 2.797092
1.019034 0.71522963 2.7952373
1.0258936 0.71470934 2.7931411
1.0332441 0.71453637 2.7924013
1.0410957 0.71470976 2.7930138
1.0561959 0.71464127 2.792594
1.3259709 0.7166816 2.7932866
1.333755 0.71676886 2.7932618
0.20590962 0.72546035 2.7989388
0.24366218 0.72422075 2.7944212
0.25171903 0.72547722 2.7993455
1.0051891 0.72381735 2.7991223
1.0121602 0.72335595 2.7972832
1.0188695 0.7227158 2.7947454
1.0259806 0.72236806 2.7933364
1.0490396 0.72254354 2.7938049
1.0568061 0.72265518 2.7941554
1.3178511 0.7240262 2.7923908
1.3516293 0.7257998 2.7977459
0.20574403 0.73250139 2.7968628
0.24363452 0.73175532 2.7942812
0.25166869 0.73296148 2.7989619
0.25936994 0.73315555 2.799767
1.0124843 0.73119849 2.7981434
1.0192807 0.73061228 2.795835
1.0260624 0.73002422 2.7935143
1.0485317 0.72978997 2.7923918
1.3257143 0.73177671 2.7923455
1.3523464 0.73382312 2.7990193
0.20593104 0.74079847 2.7995949
0.24362636 0.73934716 2.7943647
0.25172487 0.74075603 2.7997656
0.98256767 0.73921573 2.7998407
0.990053 0.73911643 2.7994223
0.99777633 0.73919487 2.799674
1.0051696 0.73902953 2.7989945
1.0121442 0.73856121 2.797159
1.0191063 0.73809069 2.7953098
1.0262223 0.73773795 2.7939031
1.3351443 0.74039704 2.7955604
1.3436757 0.74089384 2.7970512
0.20579852 0.74794817 2.7979684
0.25152057 0.74777955 2.7976623
0.25926188 0.7481063 2.7989483
0.95973754 0.74685037 2.7999887
0.98254627 0.74681449 2.7997489
0.98962975 0.74641126 2.7981877
0.99735153 0.74649179 2.7984409
1.0047437 0.74632633 2.7977641
1.0120466 0.74609751 2.7968438
1.0409225 0.74497551 2.7923317
1.3342716 0.74753535 2.7935119
1.342381 0.74780488 2.794127
1.3526018 0.74924093 2.7991033
0.2434175 0.75393307 2.7923141
0.25159526 0.75562859 2.798671
0.95923758 0.75407249 2.798502
0.96681625 0.75404453 2.7983639
0.98195988 0.75397915 2.7980392
0.98912168 0.75363481 2.7967095
0.99684137 0.75371772 2.7969646
1.0045584 0.75379723 2.7972026
1.0333872 0.75261837 2.7925286
1.3417113 0.75505298 2.7925036
1.3516139 0.75632775 2.7968221
0.24338418 0.76143873 2.7921059
0.25151756 0.76301986 2.7979786
0.25932541 0.76354945 2.7999849
0.94292921 0.76461148 2.7953162
0.95091909 0.76112044 2.7964323
0.96554244 0.76444906 2.7946196
0.97324646 0.76072991 2.7948813
0.98788464 0.76028973 2.7931607
1.0029807 0.7602098 2.7927482
1.0105215 0.76016545 2.7925179
1.3595865 0.76415014 2.7968526
0.2515676 0.77079779 2.7987106
0.92432332 0.77255809 2.796608
0.931602 0.76848412 2.7955933
0.95799035 0.76829469 2.7947965
1.3750446 0.77188689 2.7960784
0.90629405 0.77721405 2.7997108
1.3926554 0.78083032 2.7995677
0.19779156 0.78458428 2.7934711
0.24340098 0.78431934 2.7928181
0.25159854 0.78614676 2.7993996
0.25116161 0.79619986 2.7947767
0.30464345 0.79662257 2.7966673
0.89731568 0.79884559 2.7954345
0.2587716 0.80379117 2.7949195
0.26644677 0.80396736 2.7955866
0.27390122 0.80348563 2.7939615
0.28138095 0.80690777 2.792762
0.28901154 0.80696416 2.7930148
0.31186995 0.80703008 2.793422
0.31601578 0.80409479 2.7964127
0.3250542 0.80318928 2.7977324
0.86825144 0.80009896 2.7998743
0.88338184 0.80000329 2.7995257
0.89108545 0.80008096 2.7997866
0.92135394 0.80751753 2.7990532
0.93162727 0.80652201 2.795536
0.94286811 0.80637628 2.794965
0.31171027 0.81422114 2.7921441
0.32689539 0.8141458 2.7920063
0.33499616 0.81153846 2.7961264
0.34251958 0.81131279 2.7954137
0.35011077 0.8112548 2.795279
0.35785055 0.81153709 2.7963181
0.36559308 0.81181204 2.797338
0.3731637 0.8117038 2.7970285
0.38085914 0.8118645 2.7976537
0.38852274 0.81576544 2.7981
0.40377682 0.81578535 2.798306
0.95961344 0.81528211 2.7993038
0.97337264 0.81404769 2.7949231
0.99576056 0.81369609 2.7934806
1.3580605 0.80905658 2.792155
1.3774122 0.81146628 2.7995512
1.3854533 0.81169349 2.7998469
0.39633572 0.81615841 2.7995207
0.40329862 0.82242912 2.7951205
0.41133082 0.81945586 2.7979782
0.41891509 0.82319534 2.7978694
0.42626053 0.82266456 2.796129
0.43381375 0.8225466 2.7957954
0.44158578 0.82284039 2.7968674
0.44898075 0.82243353 2.7955494
0.46440604 0.82278538 2.79689
0.47594473 0.82298225 2.797667
0.48735923 0.82296008 2.7976975
0.50294691 0.8235352 2.7998004
0.51050729 0.8234334 2.7995236
1.3115007 0.82382417 2.7925687
1.329928 0.81815463 2.7987001
0.41051209 0.82923132 2.7925954
0.44095168 0.82926154 2.7929666
0.44841224 0.82899249 2.7921255
0.45999783 0.82931441 2.7933159
0.47162285 0.82969534 2.7947059
0.47906533 0.82940507 2.7937939
0.48678693 0.82959956 2.7945197
0.49459225 0.82992864 2.7957001
0.50210404 0.82976258 2.7952077
0.51003897 0.83029038 2.7970598
0.51750094 0.83004391 2.7962952
0.56295878 0.82971644 2.7955906
0.58660823 0.83087575 2.7997029
0.6018706 0.83090401 2.7999239
0.47126424 0.83666545 2.7926941
0.48658213 0.83685333 2.7934563
0.49430141 0.83704495 2.7941651
0.50210536 0.83737212 2.7953272
0.50961161 0.83720046 2.7948186
0.51711154 0.8370235 2.7942924
0.58622348 0.83794332 2.7979496
0.60182947 0.83846456 2.7998159
0.39525127 0.84433162 2.7923865
0.39597923 0.85350227 2.797678
0.23808062 -0.045539137 2.8072844
0.27578038 -0.045418285 2.8003273
0.2915754 -0.045490421 2.8050153
0.23022181 0.0082380623 2.805033
0.2379238 0.012076203 2.8053794
0.24569194 0.012080796 2.8064685
0.25326169 0.012075331 2.8052955
0.2610549 0.0082415091 2.8066082
0.26863331 0.015916051 2.8056111
0.27630481 0.015915498 2.8056223
0.29176787 0.015921023 2.8068259
0.2454676 0.023582097 2.8039079
0.25312003 0.023579776 2.8037317
0.26069954 0.023570998 2.8027885
0.26846117 0.023578722 2.8038158
0.31472 0.023593817 2.8063114
0.32248789 0.023600163 2.8071935
0.3301698 0.023600072 2.8073103
0.33778939 0.023595626 2.8069103
0.24541672 0.031249585 2.8033359
0.25311235 0.031252038 2.8036575
0.2607609 0.031248707 2.8034613
0.26850057 0.031256173 2.8042393
0.31473833 0.031273421 2.8064864
0.32247818 0.031279072 2.8071201
0.33021814 0.031284466 2.8077333
0.33777925 0.03127306 2.8068361
0.25323701 0.038944185 2.8050566
0.26091233 0.038943473 2.8051085
0.26865649 0.038952772 2.805887
0.27635306 0.038954858 2.8061464
0.28414851 0.038970381 2.8073804
0.29953873 0.038972933 2.8077965
0.30717662 0.038966849 2.8074765
0.24543907 0.046598572 2.8036232
0.25329223 0.046631116 2.8056879
0.26096925 0.04663026 2.8057399
0.26883382 0.046662003 2.8077621
0.25334537 0.054320935 2.8062983
0.24551825 0.061964717 2.8045747
0.25337392 0.062007964 2.8066392
1.0314584 0.061666433 2.8076293
1.0844561 0.061638243 2.806953
1.1070108 0.061618172 2.8062248
1.1130455 0.061529644 2.8022325
1.1357863 0.061522368 2.8020239
1.1429803 0.061499238 2.8009963
1.2050329 0.06155454 2.8035336
1.21237 0.061539762 2.8028297
1.2275234 0.0615348 2.8025239
1.2661026 0.061556716 2.803196
0.24556561 0.069653697 2.8051441
0.25348997 0.06972079 2.807955
0.96973246 0.069262877 2.804976
0.97749436 0.069271713 2.8054657
0.98484039 0.069251157 2.8047585
0.99300927 0.069288336 2.8063936
1.0003436 0.069267169 2.8056538
1.0117071 0.069260918 2.805573
1.0213553 0.069138438 2.800761
1.0591446 0.069116987 2.800369
1.0668463 0.069122203 2.800663
1.2982129 0.069266938 2.8062453
1.3057063 0.069259278 2.8058105
0.99094903 0.0767655 2.8005617
0.99885553 0.076787204 2.8014758
1.0066769 0.076802075 2.8021362
1.3343801 0.076785013 2.8012724
0.97629708 0.092063591 2.8020506
0.99121463 0.092031993 2.8013353
0.97016877 0.099843599 2.8062878
0.97760636 0.099822864 2.8058326
0.98820913 0.099736564 2.803587
0.99945611 0.099716336 2.8031967
1.007198 0.099727318 2.8036213
1.0213065 0.099614635 2.8006618
1.0292878 0.099649303 2.8017426
0.25347784 0.10813775 2.8079987
0.97800708 0.10750271 2.8070002
0.98544019 0.1074799 2.8065281
0.99328148 0.10750161 2.8072193
1.0004516 0.1074509 2.8060093
1.0116907 0.10742791 2.805577
1.0222374 0.10733225 2.8032334
1.030225 0.1073695 2.8043118
1.0366561 0.10724518 2.8011529
1.3990456 0.10755748 2.8069422
0.25344664 0.11580754 2.8076968
1.0236733 0.11512057 2.8071947
1.0465342 0.11511376 2.807322
1.0532984 0.11501806 2.8050699
1.0595181 0.11486474 2.801403
1.382472 0.11509364 2.8047881
0.25343567 0.12348531 2.8076227
1.0463387 0.12272791 2.8068061
1.0529269 0.12260555 2.8040874
1.0597616 0.12251346 2.802058
1.0817956 0.12241806 2.8000915
1.3576801 0.12256017 2.8015237
1.3655741 0.122584 2.8018687
1.3743451 0.12268584 2.803992
0.25342259 0.13116132 2.807528
1.0534241 0.1302951 2.8054259
1.0596455 0.13012151 2.8017597
1.0669091 0.13007745 2.8008864
1.0742527 0.13004373 2.8002317
1.0819479 0.13005275 2.8004949
1.08982 0.13008276 2.8012066
1.0970551 0.1300368 2.8002727
1.3582052 0.13023575 2.8025923
1.3676302 0.13040677 2.8060815
0.25334024 0.13879859 2.8066669
1.052426 0.13779603 2.8027701
1.0595225 0.13772701 2.8014438
1.0828109 0.13778 2.8027437
1.0898759 0.13770902 2.8013582
1.0974751 0.13770603 2.8013549
0.25332296 0.14646848 2.8065312
1.0524715 0.14542677 2.8029034
1.0595688 0.14535394 2.8015771
1.0669211 0.14531691 2.8009379
1.074355 0.1452914 2.8005173
1.082141 0.14531358 2.801013
1.0900152 0.14534719 2.8017251
0.25334826 0.15416326 2.8068721
1.0388854 0.15329795 2.8072665
1.0454009 0.15313315 2.8043296
1.0521599 0.15300621 2.8020828
1.0593439 0.1529424 2.8009918
1.0667838 0.15291621 2.8005867
1.0744848 0.15292753 2.8008661
1.0821823 0.15293822 2.8011289
0.25337148 0.1618582 2.8071923
1.0390023 0.16095307 2.8075972
1.0456927 0.16080686 2.8051279
1.0527169 0.1607137 2.8035829
1.0598166 0.16063337 2.8022571
1.0669942 0.16056587 2.8011513
1.0749643 0.16061775 2.8021302
1.0824856 0.16060233 2.8019259
1.0894599 0.16050652 2.8003097
0.25325835 0.16946335 2.8060009
1.0388528 0.1685667 2.8072066
1.0455428 0.16841367 2.8047385
1.0520942 0.1720522 2.801939
1.059411 0.17200193 2.8011997
1.0818849 0.1681302 2.8003757
0.24546801 0.17706171 2.8047149
0.25336674 0.17721657 2.8072739
1.0389607 0.1800409 2.8075218
1.0454786 0.17984739 2.8045869
1.0524205 0.18354161 2.8028312
1.0590798 0.18337391 2.8003402
0.25329417 0.1848443 2.8065386
1.0311441 0.1914643 2.8069754
1.0387959 0.19146655 2.8070989
1.0448791 0.19118175 2.8029962
1.0524247 0.19116673 2.8028564
1.0592606 0.19102393 2.800833
0.25326425 0.19250003 2.8062799
1.0515474 0.19862542 2.8005271
0.25319278 0.20395926 2.8056026
1.0312144 0.20675097 2.8072028
1.0381771 0.20661612 2.8054545
1.0446053 0.20637764 2.8022904
1.0589857 0.20620781 2.8001311
1.0667809 0.2062417 2.8006625
1.074663 0.20629174 2.8014095
0.25325119 0.21552169 2.8063743
1.031368 0.21441968 2.8076406
1.0380733 0.21422651 2.8051908
1.0522211 0.21399854 2.8023572
1.0593218 0.2138924 2.8010366
1.066854 0.21387431 2.800868
1.0742917 0.21383765 2.8004506
0.25336921 0.22330289 2.8077717
1.038308 0.22190773 2.8058448
1.0450859 0.22172566 2.8036172
1.0519358 0.22156139 2.8016107
1.059387 0.22152521 2.8012245
1.0666548 0.22145146 2.8003566
1.0741808 0.22143202 2.8001728
0.25310555 0.2307433 2.804929
1.0238228 0.22971709 2.8078532
1.0381044 0.22949553 2.8053112
1.0451422 0.22936456 2.8037858
1.0516436 0.22911859 2.8008461
1.0592697 0.22911942 2.8009276
1.0742413 0.22906131 2.8003435
1.0236992 0.23732708 2.807534
1.0314453 0.23735127 2.8079093
1.0383257 0.23717734 2.8059294
1.045105 0.23698303 2.8037031
1.0516944 0.23674877 2.8009977
1.0601125 0.23692657 2.8031783
1.0667666 0.23671046 2.800679
1.0741167 0.23665068 2.8000302
0.25326413 0.24624299 2.8068759
1.0307149 0.24481629 2.8059349
1.0376775 0.24465744 2.8041916
1.0448875 0.24455877 2.8031354
1.051913 0.24441868 2.8015985
1.0595417 0.24441975 2.8016796
0.25330678 0.25396332 2.8074467
1.0157681 0.25253046 2.8066828
1.0303209 0.25235289 2.8048794
1.0372818 0.25218934 2.8031375
1.0443164 0.25204599 2.8016162
1.0515134 0.25194365 2.8005476
1.0593159 0.25198677 2.8010967
1.015625 0.26012936 2.8063092
1.036793 0.25969216 2.8018324
1.0443457 0.25967419 2.8017137
1.059523 0.25965661 2.8016613
1.0665296 0.2595064 2.8000972
1.0158979 0.26783577 2.8070891
1.0227132 0.26762 2.8049085
1.0299414 0.26751468 2.8038847
1.0369014 0.26734173 2.8021455
1.044542 0.26734552 2.8022599
1.0517421 0.26723737 2.8011925
1.0591959 0.26719469 2.8008094
1.0159106 0.27547574 2.8071482
1.0225567 0.27520826 2.8045006
1.0293565 0.27498579 2.8023088
1.0365719 0.27487677 2.8012719
1.0437775 0.27476686 2.8002214
1.0514972 0.27479279 2.8005552
1.0232439 0.28302753 2.8064139
1.0296211 0.28268147 2.8030529
1.0366668 0.28252268 2.8015497
1.0443072 0.28252712 2.8016658
0.25328824 0.29233629 2.8077614
1.0229892 0.29058948 2.8057363
1.0300502 0.29042742 2.8042462
1.0446566 0.29024503 2.8026252
1.059141 0.29003441 2.8007121
1.036492 0.29771391 2.8011167
1.0449128 0.29794142 2.8033333
1.051595 0.29767352 2.800869
1.0595772 0.29777485 2.8018851
0.25323537 0.30762869 2.8073995
1.029605 0.30555168 2.8030744
1.0370833 0.30550751 2.8027401
1.0445553 0.30546218 2.8023906
1.0516725 0.30531442 2.8010936
1.059305 0.30531737 2.8011789
1.3272901 0.30559409 2.8018208
1.3362755 0.30590451 2.8044803
1.3454851 0.30626249 2.8075669
0.25306126 0.3150886 2.8055799
1.0375818 0.3132818 2.804112
1.0454909 0.31336522 2.8049271
1.0516559 0.31292847 2.8010669
1.3351171 0.31326643 2.801995
1.3450724 0.31380883 2.8066547
0.25295198 0.32262066 2.8044834
1.015258 0.32108906 2.8054881
1.0228395 0.32107228 2.805419
1.0301596 0.32097423 2.8046334
1.0379874 0.32103467 2.805232
1.0446876 0.32074806 2.8027844
1.0598805 0.32072958 2.8027377
1.0668081 0.32051963 2.8009472
1.3274187 0.32087702 2.802002
1.336086 0.32112634 2.8039865
0.25299641 0.33034679 2.8050992
1.0118928 0.32886821 2.806735
1.0234015 0.32888418 2.806989
1.0299571 0.3285386 2.8041024
1.0588869 0.32804495 2.8001177
1.3278437 0.32860887 2.8028541
1.3353403 0.32857546 2.8023667
1.3454052 0.32917076 2.8072486
1.3530133 0.32916161 2.8069496
0.2531499 0.33822134 2.8069303
1.0075142 0.33631626 2.8051565
1.0146149 0.33995265 2.8037691
1.0221941 0.33993566 2.8037028
1.0295548 0.33984667 2.8030372
1.051524 0.34336078 2.8007846
1.3271999 0.33607498 2.8014414
1.3351681 0.33997214 2.8019261
1.3435659 0.34398419 2.8032899
1.3446498 0.33662379 2.8056135
0.25310135 0.3458291 2.8065164
0.99315953 0.34808272 2.8076224
1.005253 0.34658787 2.8059618
1.0144136 0.35132352 2.8032494
1.0217381 0.35121891 2.802484
1.0288838 0.35105485 2.8012378
1.0437483 0.35092664 2.8003321
1.3366871 0.35181493 2.8050418
1.3440822 0.351751 2.8043129
1.3524593 0.3443045 2.8056834
1.3606043 0.34443182 2.8064888
0.21485421 0.35372061 2.8079557
0.25307301 0.35346222 2.8063297
1.0075238 0.35921228 2.8052645
1.0146921 0.35904738 2.8040466
1.0217651 0.35885149 2.8025818
1.3396629 0.3592248 2.8031049
1.353127 0.35593855 2.806983
1.3608986 0.35597062 2.8070042
0.25304273 0.36109075 2.8061235
0.99317127 0.36718193 2.8077323
1.0114192 0.36687243 2.8055518
1.0438884 0.36620936 2.8007467
1.3283733 0.36690074 2.8037109
1.3522744 0.36717081 2.805115
1.3602059 0.36724919 2.8054736
0.21480045 0.36898303 2.8075185
0.25289947 0.36855286 2.8046629
1.0116837 0.37460175 2.8063126
1.0222234 0.37426585 2.80389
1.0298015 0.37424698 2.8038101
1.0374604 0.37425756 2.8039467
1.0442513 0.37395704 2.8017411
1.3278004 0.37437138 2.8024397
1.3357302 0.3744548 2.8028519
1.3525571 0.37488696 2.8056378
1.3605989 0.37499693 2.8062193
1.3688587 0.37516537 2.8072298
0.25294703 0.38012397 2.8053951
1.0043018 0.38233197 2.8069797
1.0157408 0.38232449 2.80703
1.0229933 0.38218024 2.8060319
1.0290427 0.38159195 2.8017592
1.0370406 0.38172954 2.8028283
1.0441757 0.38154984 2.8015556
1.0514736 0.38143188 2.8007326
1.0592008 0.38147017 2.8010559
1.3271149 0.38180301 2.8009284
1.3354686 0.38201058 2.8022387
1.3440399 0.38227758 2.803977
1.3526175 0.38254336 2.805696
1.3609849 0.38274702 2.8069479
0.25292408 0.39159054 2.8053479
1.0079764 0.38991123 2.806637
1.0153201 0.38979831 2.8058887
1.0220628 0.38945809 2.8034947
1.0293007 0.38931018 2.802485
1.0363575 0.38909656 2.8009958
1.0441798 0.38917127 2.8015842
1.0597316 0.38928339 2.8024776
1.066404 0.38893577 2.8000014
1.3319776 0.38973492 2.8029716
1.3437712 0.38983402 2.8033476
1.3537455 0.39050847 2.8079736
0.25290617 0.39922953 2.8052897
1.0148935 0.3972635 2.8047309
1.0227349 0.39734474 2.8053672
1.0374694 0.39714056 2.8040292
1.0442641 0.39682314 2.8018279
1.0594691 0.39680716 2.8017943
1.0664929 0.39658415 2.8002472
1.3275243 0.39717537 2.8016696
1.3349245 0.39710677 2.8009624
1.3436023 0.39741695 2.8029253
0.25306353 0.4071494 2.807184
1.0151333 0.40498814 2.8054202
1.0222156 0.40476966 2.8039606
1.0297972 0.40475067 2.8038831
1.0371168 0.40462965 2.803092
1.0452045 0.40480793 2.8043761
1.051644 0.40434992 2.8012333
1.3284066 0.40507171 2.8034713
1.3440678 0.40518922 2.8038287
1.3537226 0.40579376 2.807781
0.25286457 0.41449478 2.8051152
0.99305409 0.41296124 2.8075824
1.0003328 0.41281199 2.8066342
1.0155348 0.41278207 2.8065572
1.02279 0.412628 2.8055634
1.0301211 0.41250655 2.8047876
1.0445855 0.41219106 2.8027265
1.0515431 0.41192916 2.8009784
1.3282229 0.41264695 2.8030145
1.3436713 0.41270196 2.8029258
0.25279662 0.42204678 2.8045061
1.0039835 0.42037594 2.8062224
1.0152576 0.42030114 2.8058128
1.0230194 0.42035329 2.806217
1.0373356 0.41996628 2.8037214
1.0451678 0.42004797 2.8043096
1.0514362 0.41950452 2.8007061
1.3284556 0.42035189 2.803437
1.3431613 0.42017472 2.8017833
1.3533498 0.42096972 2.8068516
0.21453802 0.42986107 2.8052318
0.25270468 0.4295539 2.8036318
0.99576533 0.42775983 2.8045461
1.0070442 0.42768726 2.8041637
1.0151424 0.42788434 2.8055172
1.0232426 0.42807922 2.8068521
1.0304936 0.42791876 2.8058445
1.0373926 0.42761537 2.8038933
1.0446228 0.42745203 2.8028576
1.0513229 0.42707571 2.8004165
1.0589674 0.4270857 2.8005111
1.327835 0.42778462 2.8020513
1.3425375 0.42760545 2.8004007
1.3527238 0.42841533 2.8054693
0.25269932 0.43720528 2.8037229
0.99585056 0.43542552 2.8048139
1.0068395 0.43522614 2.803617
1.0148532 0.43539113 2.8047385
1.0225297 0.43541005 2.8049116
1.0297773 0.43524736 2.8039067
1.0374434 0.43526277 2.8040478
1.0444164 0.43498921 2.8023169
1.0588479 0.43465325 2.8002048
1.3396971 0.43554872 2.8024917
1.3516623 0.43571347 2.8031783
1.36165 0.43646672 2.8077748
0.25253737 0.44458061 2.8020728
0.98520803 0.44341713 2.8070455
0.99592936 0.44308978 2.8050637
1.0066289 0.44275925 2.8030531
1.0143065 0.44278109 2.8032451
1.0215579 0.44261798 2.8022578
1.0293953 0.4427093 2.802882
1.0367178 0.44257939 2.8020964
1.0438596 0.44237486 2.800832
1.0516845 0.44246069 2.8014069
1.0590715 0.4423624 2.8008075
1.32742 0.4429042 2.8010218
1.3350406 0.4429011 2.8007646
1.3434052 0.44314349 2.8020551
1.3529538 0.44377139 2.8057802
1.3616551 0.44411594 2.807698
0.25250623 0.45218039 2.8018804
0.9850741 0.45099136 2.8066933
0.99571329 0.45062184 2.8044803
1.0064955 0.45032376 2.8027048
1.0141733 0.4503465 2.8028979
1.021425 0.45018119 2.8019121
1.0292624 0.45027444 2.8025365
1.0365851 0.45014289 2.8017521
1.0442438 0.45015809 2.8018796
1.0523322 0.45035693 2.803149
1.0591141 0.44999781 2.8009291
1.327625 0.45060056 2.8013775
1.3366287 0.45106366 2.8040254
1.3446821 0.45120272 2.8046422
1.3539158 0.45173395 2.8076942
0.97755516 0.45868161 2.8069999
0.98812771 0.45827138 2.8045783
0.9991715 0.45808563 2.8035264
1.0066062 0.45799729 2.8030374
1.014034 0.4579072 2.8025331
1.0213704 0.45777744 2.8017807
1.0288687 0.45772165 2.8014779
1.0361043 0.45755067 2.8004634
1.0438471 0.45760456 2.8008246
1.0520204 0.45784497 2.802326
1.0590632 0.45759353 2.8008025
1.336935 0.45880449 2.8045859
1.3449913 0.45894626 2.8052022
0.25234997 0.46720031 2.8004541
0.98830974 0.46598569 2.8051243
0.99943954 0.46583602 2.8043058
1.0067106 0.4656696 2.8033521
1.0145594 0.4657709 2.8040104
1.0220691 0.46571615 2.8037219
1.0294032 0.46558282 2.8029544
1.0363016 0.46525583 2.8010125
1.337765 0.46673149 2.806246
1.3449736 0.46657994 2.8050759
0.97019243 0.47408733 2.8077984
0.97741961 0.4738867 2.8066721
0.98807633 0.47350383 2.8044875
0.99904013 0.47327432 2.803206
1.006476 0.47318417 2.8027191
1.0140728 0.47317031 2.8026814
1.0217491 0.47319356 2.8028593
1.0288275 0.47294155 2.8013973
1.0360655 0.47276607 2.8003855
1.051379 0.47279945 2.8006301
1.3364658 0.47391301 2.8034234
1.3444161 0.47402307 2.8038177
0.26065055 0.48370138 2.8078547
0.97750473 0.48156297 2.8069477
0.988123 0.48115495 2.8046491
0.99871755 0.48074356 2.8023219
1.0065684 0.48085126 2.8029985
1.013748 0.48063913 2.8018005
1.0215919 0.48074272 2.8024437
1.0290948 0.48068559 2.8021426
1.0359981 0.48415881 2.8002212
1.0436534 0.48036784 2.8003359
1.0512224 0.4803448 2.8002198
1.3357971 0.48130682 2.8019252
1.3436391 0.48138124 2.802098
1.3531932 0.48206469 2.8058169
0.25238854 0.49022484 2.8013654
0.26056328 0.49120581 2.8070734
0.9879185 0.48868251 2.8040943
1.0059052 0.49196184 2.8011765
1.0132077 0.49180722 2.8003297
1.0211759 0.49197587 2.8013227
1.0285082 0.49183661 2.80056
1.3442407 0.4892323 2.8032596
1.3520861 0.48930699 2.8034143
1.3612207 0.48984492 2.8062205
0.25225815 0.49761871 2.8000772
0.2605876 0.49891868 2.8074996
0.98839635 0.5003624 2.8054976
0.9963398 0.49860922 2.8028278
1.0056461 0.50326091 2.8004823
1.0133251 0.50329012 2.8006806
1.0210009 0.50331736 2.800863
1.0285034 0.50325942 2.8005655
1.3443025 0.49689072 2.8032899
1.3524708 0.49708512 2.8041117
1.3616085 0.4976317 2.8069165
0.25245628 0.50566256 2.8024476
0.98511159 0.50445193 2.8069983
0.99554217 0.51155972 2.8041933
1.0062129 0.51116568 2.8020842
1.0134791 0.51098496 2.8011234
1.3481755 0.50454664 2.8031583
1.3620968 0.50546014 2.8078172
0.25260827 0.51362473 2.8043065
0.98715669 0.51691329 2.8056295
0.99875152 0.51887131 2.802525
1.0059435 0.51864773 2.8013487
1.0133762 0.51855069 2.8008533
1.020718 0.51840883 2.8001106
1.3451514 0.51248592 2.804858
1.3532196 0.51264656 2.8054554
1.3616112 0.51292735 2.8067019
0.25289023 0.52186424 2.8076143
0.95456463 0.52735919 2.8068819
0.96244872 0.52749401 2.8076594
0.96945041 0.52714688 2.8058593
0.97740757 0.52732062 2.8068361
0.98471439 0.52714354 2.8059363
0.99921882 0.5267399 2.8038595
1.0064154 0.52651358 2.8026831
1.0134346 0.52619857 2.8010287
1.3438458 0.52725512 2.801909
1.3449802 0.52006048 2.8043923
1.3529611 0.52400964 2.80475
1.3616563 0.52059186 2.8066807
0.25255471 0.52882797 2.8040469
0.96925306 0.5346697 2.8053138
0.98061901 0.53462476 2.8051457
0.99566388 0.53450561 2.8045957
1.0063831 0.53411907 2.8026083
1.3431309 0.53460389 2.8003004
1.3532232 0.53557736 2.8051209
1.3610668 0.53183222 2.805284
1.3695714 0.53216594 2.8067331
1.3776304 0.52849728 2.8073037
0.25239992 0.53997833 2.802578
0.95456022 0.54262632 2.8069329
0.96212834 0.54258686 2.8067806
0.96889013 0.54209685 2.8042867
0.97668374 0.54218727 2.8048005
0.98463786 0.54236472 2.8057618
0.99574578 0.54217899 2.8048501
1.0063454 0.54172099 2.8025169
1.3433661 0.54232806 2.8006759
1.3523929 0.54288721 2.8032746
1.3601431 0.54293042 2.8031907
1.3690766 0.54344296 2.805527
1.3774639 0.53990781 2.8067713
1.3853402 0.54382151 2.8068185
0.95451021 0.55023229 2.8068159
0.96192008 0.55010194 2.8061991
0.96884203 0.54969692 2.8041725
0.97679764 0.54987997 2.8051517
0.98475355 0.55006039 2.806113
0.99537265 0.5496012 2.8038116
1.0055559 0.54891205 2.8003237
1.3513433 0.55009836 2.8009694
1.3604839 0.55070746 2.8037691
1.3681279 0.55070734 2.803447
1.3770677 0.5512259 2.8057625
1.3850385 0.55135298 2.8060682
0.26046494 0.55999148 2.8075244
0.94727135 0.55810159 2.8079798
0.95461231 0.5579263 2.8071465
0.96178585 0.55765671 2.8058336
0.96950841 0.55770713 2.8061318
0.97690558 0.55757111 2.805485
0.9849444 0.55780053 2.8066783
1.3526348 0.5582639 2.8035283
1.360068 0.55817771 2.8027797
1.3688962 0.55866188 2.804893
0.25249937 0.56698406 2.804291
0.95486659 0.56571215 2.8079252
0.96180487 0.56529939 2.8059154
0.96952879 0.56535125 2.8062146
0.97668588 0.56507432 2.8048728
0.98448074 0.56516784 2.805371
0.99571562 0.56504738 2.8048115
1.0056176 0.56417882 2.8005185
1.3517861 0.56554866 2.8016348
1.3607171 0.56608647 2.8039887
1.3689041 0.56631041 2.8047724
0.25248295 0.57460111 2.8042831
0.26025236 0.57484877 2.8055737
0.96229482 0.57322288 2.8073738
0.96962351 0.57303953 2.8065119
0.97750717 0.57318455 2.8072584
0.98490363 0.57304376 2.8065968
0.99577701 0.57271028 2.8049951
1.0060537 0.5720433 2.8017457
1.3521043 0.5733186 2.8021638
1.3613595 0.57399952 2.8051801
1.3692281 0.57409155 2.8052986
1.3776367 0.57440758 2.8065047
0.25272748 0.58281887 2.8071833
0.97011214 0.58096534 2.8079515
0.97759795 0.58087355 2.8075383
0.9957909 0.58034712 2.8050461
1.0064009 0.57986325 2.8027234
1.0132642 0.57942712 2.8006184
1.0207833 0.5793699 2.8003454
1.3524157 0.5810892 2.8026752
1.3600678 0.58109361 2.802371
1.3684701 0.58141655 2.8035977
1.377525 0.58201176 2.8061295
0.2525762 0.59012681 2.8056746
0.26043862 0.59058553 2.8079393
0.95464998 0.58849031 2.8073645
0.96206719 0.58835477 2.8067534
0.97752225 0.58846366 2.8073373
0.99633157 0.58829486 2.8065825
1.0069904 0.58782971 2.8043759
1.0133597 0.58709919 2.8008864
1.3442146 0.58848304 2.8016858
1.3534662 0.58918506 2.8047194
1.3608042 0.58905089 2.8037498
1.3694264 0.5894711 2.8054163
1.3784872 0.59007436 2.807945
0.25253266 0.59768051 2.8053668
0.96198487 0.59593749 2.8065333
0.97744119 0.59604937 2.8071189
0.98524576 0.59615028 2.8076177
0.99596697 0.59570909 2.8055577
1.0068299 0.59536177 2.8039324
1.0134495 0.59476936 2.8011374
1.0284059 0.59460378 2.8003478
1.3523803 0.59635073 2.8023198
1.3602499 0.59645069 2.8024578
1.3704829 0.59758002 2.8074372
1.377391 0.59725499 2.8055511
0.25242195 0.60507047 2.8043106
0.26039222 0.60580289 2.8077912
0.94705296 0.60378802 2.8074992
0.95424283 0.60350382 2.8062096
0.96181798 0.60346591 2.8060648
0.99255568 0.60358584 2.80671
1.0069942 0.60308594 2.8043942
1.0141157 0.6027835 2.8029845
1.020975 0.60233086 2.8008695
1.3519275 0.60378689 2.8012323
1.3604383 0.60417408 2.8026977
1.3694918 0.60479641 2.8052461
1.3776922 0.60503727 2.8060086
0.25239694 0.61266184 2.8042104
0.94688088 0.61131269 2.8070107
0.96220016 0.61134046 2.8072014
0.9696945 0.6112498 2.8068087
0.9771021 0.61110628 2.8061686
0.98852158 0.61108714 2.8061028
0.99969018 0.6109122 2.8053107
1.006245 0.61025852 2.8023024
1.0141109 0.61040372 2.8029692
1.0208882 0.60989642 2.800626
1.0283238 0.60978699 2.8001103
1.3518943 0.6114077 2.8010137
1.360834 0.61199272 2.8033617
0.25219566 0.61981845 2.802146
0.26031628 0.62094444 2.8073263
0.95436502 0.61884749 2.8066099
0.96935755 0.61866838 2.8058441
0.97676414 0.61852419 2.8052058
0.98769557 0.61820161 2.8037567
0.99951291 0.61843199 2.8048141
1.0134361 0.61761552 2.8010948
1.3519614 0.61907405 2.8009999
1.3610096 0.61971557 2.8035669
0.26010731 0.62809891 2.8052444
0.96207726 0.62652999 2.8068728
0.96965295 0.62649024 2.8067138
0.97698289 0.6262936 2.8058453
0.98422325 0.62604308 2.8047304
0.9983477 0.62533027 2.8015347
1.3522344 0.62683666 2.8014104
1.3622466 0.62792963 2.8059618
1.3709908 0.62842923 2.8078418
0.25980708 0.63501805 2.802175
0.26784554 0.63594639 2.8063588
0.96181017 0.63398772 2.8061047
0.96898723 0.63368821 2.804791
0.97647411 0.63359445 2.8043871
0.98744726 0.63329291 2.8030581
0.99848795 0.6330384 2.8019285
1.0055348 0.63267541 2.8003111
1.3530326 0.63484871 2.8029084
1.3613417 0.63515836 2.8039274
1.3705122 0.6358642 2.8066897
0.25972977 0.6424709 2.8015177
0.26781207 0.64352125 2.8061855
0.28319061 0.64366478 2.8069658
0.95435107 0.6417377 2.8066168
0.96169627 0.64154351 2.8057826
0.96847606 0.64097798 2.8033154
0.97990054 0.64096761 2.8032818
0.99091136 0.64068913 2.802063
0.99796838 0.64032519 2.8004622
1.3518065 0.64190853 2.8001955
1.3622452 0.64323074 2.805625
0.25980785 0.65030813 2.8025417
0.95423144 0.64928943 2.8062766
0.96181405 0.64925373 2.8061368
0.96867597 0.648736 2.8039031
0.9799844 0.64864683 2.8035235
0.99160707 0.64876479 2.8040338
0.99856871 0.65214205 2.8021436
1.0057217 0.64802778 2.8008189
1.361009 0.65029097 2.8028984
0.25195104 0.65740609 2.8003173
0.26004091 0.65854245 2.8052433
0.26794741 0.65916282 2.807966
0.93923497 0.65711367 2.8070738
0.94698554 0.65719199 2.8074298
0.95402837 0.65678179 2.8056884
0.96176875 0.65685451 2.8060119
0.96884584 0.66028953 2.8044024
0.98141414 0.65891951 2.8039782
0.99138057 0.66005355 2.8033843
0.99858594 0.66358453 2.8021789
1.3443187 0.65725249 2.8005235
1.3625392 0.65867454 2.8058825
1.3711841 0.65915 2.8075385
0.25986892 0.66575283 2.8035617
0.26786256 0.66660982 2.8072531
0.94677758 0.66468126 2.806823
0.95382041 0.66426742 2.8050833
0.96179718 0.66450554 2.8061013
0.97239208 0.6715461 2.8036304
0.97974676 0.66754556 2.8028419
0.99081981 0.67110956 2.8017819
1.344558 0.66500682 2.8008513
1.3525518 0.6651805 2.8012269
1.3623574 0.66623819 2.8053262
1.3707889 0.66661584 2.8065414
0.25213739 0.67317915 2.8027556
0.27554783 0.67432958 2.8077714
0.28312916 0.67414254 2.8070638
0.93182802 0.67254901 2.8077803
0.94695318 0.67243952 2.8073552
0.95432031 0.67606556 2.8065677
0.96171129 0.67589056 2.8058546
0.97209597 0.67896283 2.8027654
1.3442634 0.6724968 2.8000593
1.3623825 0.67390221 2.8051932
1.3714581 0.67460084 2.8077264
0.25195771 0.68415558 2.8010225
0.25990075 0.68112814 2.8042655
0.26778004 0.6817112 2.8067431
0.27536264 0.68152767 2.8060565
0.28315786 0.68186605 2.8075271
0.94690037 0.68767136 2.8072119
0.95418376 0.68741578 2.8061697
0.96098506 0.68681991 2.8037293
0.97557783 0.68635267 2.8018031
0.9827404 0.68603104 2.8004725
1.3631471 0.68193626 2.8065829
0.25966871 0.69197762 2.8020229
0.26780522 0.68942952 2.8071871
0.27524686 0.68888921 2.8050506
0.28306326 0.68929082 2.8067627
0.29840878 0.68936849 2.8072288
0.30613193 0.68951797 2.8079159
0.95450276 0.69527996 2.8071115
0.96154445 0.69484931 2.8053641
0.98283404 0.69371343 2.8007281
0.99031222 0.69361377 2.800303
1.3620962 0.68906051 2.8042188
0.25970152 0.70352894 2.8026464
0.26757595 0.69648683 2.8049548
0.27510586 0.69618058 2.803787
0.28311265 0.69706506 2.8074312
0.29081243 0.69716692 2.8079154
0.29835877 0.69690514 2.8069317
0.34434906 0.69702083 2.8078747
0.3520067 0.6970225 2.8079653
0.95434779 0.70280021 2.8066525
0.96052486 0.70173395 2.8023748
0.97188938 0.70168138 2.802146
0.98348498 0.7017951 2.8025744
0.99072641 0.70152307 2.80146
0.99828428 0.70147765 2.801249
1.005591 0.70125782 2.800334
1.3616266 0.70029211 2.8029501
0.26738858 0.71128356 2.8033402
0.27517584 0.70400387 2.8046796
0.28303891 0.70453537 2.806874
0.29843476 0.70473677 2.8078237
0.35185677 0.70437586 2.8069327
0.35963178 0.70461386 2.8079681
0.96193862 0.71039951 2.8065052
0.96849859 0.70961112 2.8033669
0.97623533 0.70969045 2.803663
0.98791397 0.7098614 2.8043036
0.9987787 0.70944756 2.8026171
1.0064183 0.70945728 2.8026183
1.3712931 0.70515418 2.806586
0.25951645 0.71829867 2.8009994
0.26747605 0.71916091 2.8044376
0.28293476 0.71957433 2.8061895
0.29070705 0.71604389 2.8073325
0.29831505 0.71592975 2.8069544
0.95472604 0.71835089 2.8077574
0.96177423 0.71790957 2.8060145
0.96928471 0.71781754 2.8056366
0.97702849 0.71789837 2.8059318
0.99121517 0.71711504 2.8028035
0.99829102 0.71671987 2.801218
1.3622034 0.71589077 2.8037274
1.3716108 0.71297801 2.8070269
0.25957751 0.72610503 2.8018382
0.27532777 0.72734362 2.8067625
0.28309807 0.72764319 2.8079896
0.29069853 0.72750199 2.8075118
0.32887378 0.72727704 2.8070054
0.34424937 0.72742391 2.8077292
0.94695336 0.72588485 2.8073637
0.95463449 0.7259174 2.8074782
0.96152669 0.72535419 2.8052776
0.96895784 0.72520334 2.8046718
0.97638184 0.7250495 2.80405
0.9879058 0.72510886 2.8042333
0.99885619 0.72474873 2.8027799
1.3613338 0.7269035 2.8016102
1.3707488 0.72018558 2.8050411
0.26753116 0.73460168 2.8053703
0.28287229 0.73471045 2.8059177
0.29051656 0.73469388 2.8059223
0.29815832 0.73467201 2.805908
0.30574518 0.73451948 2.8053937
0.31362116 0.73505205 2.8075061
0.3211768 0.73482609 2.8067141
0.32892188 0.73503411 2.8075855
0.33646777 0.73479772 2.8067553
0.9461602 0.73290551 2.8049967
0.95375896 0.73288 2.8048837
0.96103907 0.73261195 2.8038359
0.96815205 0.73222184 2.802314
0.9762885 0.73260564 2.8037593
0.99127895 0.73240817 2.8029304
0.99844009 0.73206675 2.8015771
1.0055912 0.73172307 2.8002102
1.3620558 0.7349388 2.80288
1.3712684 0.72811717 2.8058875
0.25949451 0.74114269 2.8012924
0.26743031 0.74196815 2.8044848
0.28276601 0.7420789 2.8050339
0.2902835 0.74174553 2.8038366
0.29822499 0.74248505 2.8067091
0.30583984 0.74239469 2.8064358
0.3211394 0.74238825 2.8065546
0.3288556 0.74253529 2.8071856
0.33634293 0.74217063 2.805877
0.93937606 0.74120313 2.8075409
0.94605899 0.74045497 2.8046846
0.95358056 0.74036986 2.804343
0.96418184 0.73972273 2.8018484
1.352952 0.74179333 2.800056
1.3636198 0.7434414 2.8058829
1.3718885 0.7361083 2.8069341
0.26723653 0.74906844 2.8026209
0.28248903 0.74898905 2.8024504
0.2980352 0.74965644 2.8050883
0.32126442 0.750328 2.8078184
0.33641696 0.74998105 2.8066621
0.93819505 0.74789715 2.8039899
0.94541216 0.74757135 2.8027472
0.95300841 0.74754798 2.8026381
0.96747637 0.74694312 2.8003073
1.3621029 0.75026435 2.802521
0.25938326 0.7560882 2.8004377
0.30581465 0.75762796 2.8065431
0.33651751 0.75785476 2.8076682
0.92369378 0.75614303 2.8063126
0.94476169 0.75467426 2.8007963
0.95243216 0.75471371 2.8009183
1.3612175 0.75742185 2.8004587
1.37105 0.75863022 2.8045073
0.29770198 0.76408893 2.8022809
0.30546051 0.7643888 2.8034506
0.31351656 0.76540035 2.80724
0.33647278 0.76540238 2.8074572
0.38998649 0.76530647 2.8076308
0.87798804 0.76386881 2.8066556
0.90128285 0.7641955 2.8078732
0.90884525 0.76413047 2.8076305
0.91602796 0.76374996 2.8062208
0.92259556 0.76286709 2.8029559
0.93005568 0.76273066 2.802438
0.93704933 0.76221722 2.8005259
1.3698379 0.76561016 2.8017747
0.25946563 0.77159643 2.8016765
0.2671721 0.77179587 2.8024616
0.27471623 0.77152842 2.8015475
0.28230137 0.7713874 2.801095
0.28990635 0.77130651 2.8008635
0.29755846 0.77135211 2.8010933
0.30539158 0.77185291 2.8029828
0.31339237 0.77274269 2.8062906
0.32113501 0.77296859 2.8071814
0.38222954 0.77273929 2.8069258
0.85539418 0.77178657 2.8076658
0.86999971 0.77119005 2.8055162
0.8777203 0.77126658 2.805804
0.88507509 0.77102321 2.8049209
0.89293349 0.77121896 2.8056369
