ply
format ascii 1.0
comment PCL generated
element vertex 1473
property float x
property float y
property float z
element face 0
element camera 0
property float view_px
property float view_py
property float view_pz
property float x_axisx
property float x_axisy
property float x_axisz
property float y_axisx
property float y_axisy
property float y_axisz
property float z_axisx
property float z_axisy
property float z_axisz
property float focal
property float scalex
property float scaley
property float centerx
property float centery
property int viewportx
property int viewporty
property float k1
property float k2
end_header
0.27934217 0.43171108 2.9221838
0.27921847 0.43950018 2.9210379
0.28752971 0.44000116 2.9244764
0.27937409 0.44772986 2.9228249
0.27113235 0.45528907 2.9201479
0.27952743 0.45596477 2.9245901
0.27123374 0.46343961 2.9214015
0.27126473 0.47147378 2.9218965
0.72507048 0.47061506 2.9244819
0.26313636 0.47919336 2.9203684
0.27147561 0.4798277 2.9243369
0.23938274 0.49553517 2.9227393
0.27148169 0.49581361 2.9247317
0.23123759 0.50317317 2.9208198
0.27145895 0.50375903 2.9246531
-0.33532894 0.51100695 2.9213803
0.27138889 0.51161391 2.9240644
-0.33524129 0.51884663 2.9207785
0.27127153 0.51937401 2.922966
0.27108425 0.52699137 2.9211135
0.27933696 0.52750748 2.9240725
0.27902573 0.53489459 2.9209771
0.28718689 0.53523535 2.9229348
0.28696105 0.54278803 2.9208016
0.29512373 0.5431295 2.9227374
0.303294 0.54346669 2.9246521
0.31917781 0.54331279 2.9240179
0.30290219 0.5507378 2.9210351
0.31091416 0.5508002 2.921463
0.31884569 0.55072045 2.9211371
0.32688138 0.55082017 2.921768
0.33514065 0.55128288 2.9243321
0.34318203 0.55137396 2.9249213
0.35107726 0.55123144 2.9242694
0.35905537 0.55122256 2.9243302
0.42275739 0.55100304 2.9240916
0.43052369 0.55072892 2.922756
0.53396153 0.55046231 2.923058
0.54210407 0.5506348 2.9241161
0.36676988 0.55879253 2.9224553
0.42280999 0.55904973 2.9246173
0.43054199 0.55872577 2.9230394
0.4705722 0.55889839 2.9245784
0.47857079 0.55892068 2.9248261
0.54177451 0.55826694 2.9224756
0.54991382 0.55843842 2.9235148
0.6294744 0.55828917 2.9241483
0.70888317 0.55805397 2.9243333
0.36653742 0.5664078 2.9207659
0.43030745 0.56639057 2.921603
0.66927725 0.56621343 2.9247589
0.70072126 0.56586087 2.9234912
0.36657691 0.57443905 2.9212501
0.37444636 0.57427907 2.9205432
0.40622112 0.57412171 2.9201934
0.42217106 0.57413703 2.9205074
0.54181904 0.57424802 2.9230032
0.54986906 0.57433039 2.9235601
0.62105912 0.57381302 2.9221654
0.62876344 0.57357508 2.9210896
0.63671786 0.57356858 2.9211962
0.36664417 0.58251613 2.9219575
0.37479514 0.58278948 2.9234412
0.38279197 0.58281666 2.9236877
0.39088374 0.58298439 2.924643
0.39877877 0.58285785 2.9241195
0.44663727 0.58283073 2.9246936
0.45453292 0.58272308 2.9242754
0.46207836 0.58217812 2.9216568
0.47030538 0.58249569 2.9233809
0.47837946 0.58261645 2.9241157
0.5021854 0.58247292 2.9237802
0.51004106 0.58233708 2.9232271
0.51784676 0.58214921 2.9224131
0.52564377 0.58195758 2.9215806
0.53369582 0.58204967 2.9221778
0.54205877 0.5824731 2.9244444
0.54988629 0.58231747 2.9237952
0.60539412 0.5820294 2.9233022
0.61291558 0.5816052 2.921303
0.62113422 0.58184487 2.9226487
0.62883991 0.58160406 2.9215736
0.64538032 0.5821588 2.9246449
0.27103573 0.59069276 2.9220035
0.27907753 0.59082794 2.9227586
0.28685802 0.59041768 2.9208093
0.29523882 0.59123176 2.9249372
0.30321074 0.59120578 2.9248986
0.3110244 0.59088039 2.9233768
0.32697141 0.59085518 2.9234421
0.3350102 0.5909586 2.9240537
0.34296376 0.59091032 2.9239142
0.27905133 0.60672355 2.9228461
-0.44009745 -0.28721234 2.9262707
0.0077948533 -0.28769022 2.9266229
0.015799113 -0.28756475 2.9253473
-0.45642141 -0.27941895 2.9285958
0.071934879 -0.26385364 2.9284933
0.079870753 -0.26358652 2.9255502
0.19209895 -0.255723 2.9278316
0.25602606 -0.25554535 2.926492
0.26411808 -0.2556271 2.9275312
0.30407822 -0.25555101 2.927201
0.72674125 -0.24695292 2.9288282
-0.11234269 -0.23157543 2.9254301
0.13604131 -0.21572934 2.9276423
0.14401069 -0.21566078 2.9267654
0.20806001 -0.20760025 2.9265189
0.21613216 -0.20765936 2.9274392
0.22402725 -0.199545 2.9259021
0.23214597 -0.19163066 2.9273067
0.23227054 -0.18372025 2.9288077
0.23235388 -0.17577 2.92979
0.21599808 -0.16750844 2.9252424
0.22414389 -0.16761154 2.9271369
0.2322779 -0.16769901 2.9287603
0.20803753 -0.15954036 2.9257596
0.21605377 -0.15954515 2.9259336
0.22412565 -0.15958922 2.9268322
0.23229834 -0.15969951 2.9289532
0.1760664 -0.1515926 2.926517
0.18405965 -0.15157646 2.9262781
0.19203332 -0.15154621 2.9257686
0.20007002 -0.15156613 2.9262342
0.20817775 -0.15163626 2.9276745
0.21614432 -0.15160218 2.9271009
0.22408646 -0.15155402 2.9262564
0.23223811 -0.15164597 2.9281292
0.24027523 -0.15165953 2.9284863
0.16803926 -0.14357106 2.9261372
0.17619863 -0.14369111 2.9286616
0.20013531 -0.14360505 2.9271321
0.2081573 -0.14361051 2.9273267
0.2161231 -0.14357825 2.9267528
0.22406444 -0.14353262 2.9259086
0.23217593 -0.14359535 2.9272833
0.24023128 -0.14362037 2.9278898
0.15999721 -0.1355371 2.9254646
0.16809274 -0.13560556 2.9270141
0.20817046 -0.13560823 2.9274554
0.21613674 -0.13557774 2.9268811
0.2241165 -0.13555762 2.9265347
0.23228894 -0.13565134 2.9286563
0.16001961 -0.1275478 2.9258215
0.16804488 -0.12755801 2.9261241
0.21635021 -0.12769419 2.9297278
0.19225807 -0.11965857 2.928982
0.20010024 -0.11955246 2.9264569
0.20801479 -0.11949609 2.9251564
0.21606675 -0.11951991 2.9258275
0.23227291 -0.11961528 2.9283504
0.16801627 -0.1115212 2.9255261
0.19213486 -0.11157078 2.9270523
0.20003982 -0.11150964 2.9255238
0.2241475 -0.11154792 2.9267902
0.23232098 -0.11162505 2.9289122
0.24840017 -0.11164398 2.9296043
0.25639516 -0.11163311 2.9294198
0.26434159 -0.11160243 2.9287167
0.27241981 -0.11162756 2.9294853
0.16810691 -0.10356949 2.9270649
0.1920426 -0.10350994 2.9255986
0.23220956 -0.10356034 2.9274595
0.24028639 -0.10358714 2.9283147
0.24832317 -0.10359547 2.9286501
0.2563374 -0.10359419 2.9287148
0.26434919 -0.10359202 2.9287581
0.27242765 -0.10361535 2.929527
0.17606381 -0.095525868 2.9261198
0.19209558 -0.095529012 2.9263675
0.23211588 -0.095510617 2.9262347
0.24020985 -0.095543459 2.9273391
0.264377 -0.095588468 2.9290273
0.2320399 -0.087474041 2.9252367
0.24019241 -0.087526403 2.9270883
0.16799897 -0.079482801 2.9250665
0.17606671 -0.079508767 2.9260962
0.23221804 -0.079529747 2.9274557
0.1761108 -0.071517326 2.9268
0.23215781 -0.071499735 2.9266632
0.17610852 -0.06350515 2.926734
0.23225327 -0.06351646 2.9278429
0.16807809 -0.055488735 2.9263651
0.20002817 -0.055459339 2.9251134
0.23214971 -0.055479039 2.9265087
0.16804448 -0.047468737 2.9257569
0.17603953 -0.047464058 2.9255383
0.19205271 -0.047461562 2.9255362
0.24019679 -0.04747675 2.9270055
0.2484411 -0.04752085 2.9298313
0.17613751 -0.039477907 2.9271533
0.19204527 -0.039452352 2.9254045
0.24024862 -0.039475016 2.9276209
0.26444182 -0.039496932 2.9295578
0.16000552 -0.031445727 2.9251692
0.16814439 -0.031469643 2.9274685
0.19205253 -0.031446163 2.9255011
0.23216209 -0.031453412 2.9266126
0.24033916 -0.0314749 2.9287136
0.24831446 -0.031469416 2.9283011
0.25626308 -0.031461008 2.9276183
0.27248701 -0.031483419 2.9299235
0.16002384 -0.023440842 2.9254937
0.19202548 -0.023435179 2.9250765
0.23210974 -0.023438603 2.9259398
0.24020348 -0.023446655 2.9270439
0.24830061 -0.023454506 2.9281266
0.25629228 -0.023452219 2.927942
0.26423538 -0.023445757 2.9272382
0.27249491 -0.023466932 2.9299977
0.16809563 -0.015437844 2.9265978
0.19204579 -0.015430259 2.9253786
0.23215398 -0.01543382 2.9264905
0.2402492 -0.01543912 2.9275949
0.24836892 -0.015445599 2.9289265
0.25634101 -0.015442779 2.9284923
0.26419595 -0.01543329 2.9267924
0.27238512 -0.015443305 2.9288061
0.15199046 -0.0074228235 2.925004
0.16006996 -0.0074260067 2.9263265
0.16811197 -0.00742723 2.9268782
0.23229474 -0.0074290745 2.928266
0.24031328 -0.0074291029 2.9283736
0.24841402 -0.0074315886 2.9294555
0.25632235 -0.0074283429 2.9282746
0.26419914 -0.0074244072 2.9268234
0.2723884 -0.0074292254 2.9288366
0.16808401 0.00058478711 2.9263887
0.23237444 0.00058523036 2.9292722
0.24027336 0.00058493466 2.9278841
0.24837282 0.00058513053 2.9289665
0.25627986 0.00058487494 2.9277859
0.26417774 0.00058461458 2.926584
0.27236632 0.00058499404 2.928597
0.16804031 0.0085933348 2.9256272
0.17608006 0.0085946787 2.9261577
0.18405816 0.0085930265 2.925668
0.2323339 0.0086005842 2.9287617
0.24025184 0.0085969679 2.927623
0.24839269 0.0086013041 2.9292033
0.25636551 0.0085997349 2.9287694
0.26424363 0.0085951788 2.9273183
0.2724342 0.0086007547 2.9293313
0.16808093 0.016606046 2.9263418
0.22404268 0.016595874 2.9251087
0.2324096 0.016621452 2.929724
0.24026899 0.016610241 2.9278378
0.24841042 0.016618619 2.9294183
0.25634035 0.016612768 2.9284863
0.26424012 0.016605373 2.927284
0.27247676 0.016618963 2.9297953
0.23236512 0.024634801 2.9291697
0.24024338 0.024620272 2.9275331
0.24842606 0.024636868 2.9296119
0.25633478 0.024626108 2.9284303
0.26423436 0.024615148 2.9272282
0.2724939 0.024637379 2.9299884
0.21605435 0.032610487 2.9253228
0.24019529 0.032625549 2.9269571
0.2483764 0.032647546 2.9290361
0.25632703 0.032638822 2.9283531
0.26418152 0.032618761 2.9266529
0.27248567 0.032653764 2.9299111
0.24832465 0.040654674 2.9284387
0.25631708 0.040650703 2.9282539
0.2641713 0.040625725 2.926554
0.27247512 0.040669318 2.9298117
0.17600828 0.048624605 2.9250205
0.18409269 0.048644215 2.9262774
0.19208391 0.048638593 2.9260163
0.20003764 0.048624299 2.9252343
0.21603566 0.048619285 2.9251022
0.24824972 0.048653923 2.9275708
0.25619632 0.048640922 2.926888
0.26404682 0.04861103 2.9251888
0.27225456 0.048646726 2.9274511
0.25611684 0.056632727 2.9259989
0.27214712 0.056634698 2.9263134
0.19202809 0.06463778 2.9252095
0.27210659 0.064632237 2.9259009
0.2804381 0.064706542 2.9293852
0.27210996 0.072639115 2.9259644
0.2804178 0.072716445 2.9291997
0.27213407 0.080652326 2.926255
0.28041887 0.080731355 2.9292419
0.24822265 0.088701807 2.9273889
0.25612497 0.088663101 2.9262092
0.27215588 0.088666223 2.9265244
0.28044128 0.088753089 2.9295108
0.27222154 0.096696973 2.9272697
0.28043762 0.09676709 2.9295092
0.24821398 0.10471945 2.9273646
0.25609431 0.10466487 2.9259357
0.2721234 0.10466859 2.9262516
0.28033665 0.10474452 2.9284916
0.24017343 0.11271729 2.9269838
0.24814336 0.11269773 2.9265728
0.25606492 0.11265813 2.9256427
0.27202302 0.1126335 2.9252121
0.28025711 0.1127248 2.927701
0.24020484 0.12074255 2.9274149
0.24813379 0.12070115 2.9265063
0.25605512 0.12065876 2.9255764
0.28008026 0.12065864 2.9258945
0.24017318 0.12873609 2.9270778
0.28004348 0.12864669 2.9255586
0.28002813 0.1366431 2.9254503
0.28008157 0.14467415 2.9260657
0.28013262 0.15270698 2.9266596
0.28013393 0.16071418 2.9267352
0.23199643 0.16866435 2.9252107
0.28013286 0.16872002 2.9267888
0.2883251 0.16882674 2.9287572
0.23205251 0.17671084 2.9259884
0.28008211 0.17669445 2.9263246
0.28827286 0.17680623 2.9282928
0.23198859 0.18466575 2.9252527
0.24804537 0.18469748 2.9259479
0.28010008 0.18471131 2.926584
0.28838888 0.18489066 2.9295454
0.23211944 0.19277793 2.9269824
0.24009164 0.19274634 2.9265947
0.24801713 0.19268049 2.9256887
0.28011578 0.19272763 2.9268222
0.28830752 0.19284953 2.9287903
0.23220895 0.20086344 2.9281926
0.2401029 0.2007625 2.9268107
0.24802884 0.20069396 2.925905
0.2801291 0.20074315 2.9270387
0.28836995 0.20090407 2.9295032
0.23206064 0.20874117 2.926398
0.23999026 0.20867164 2.925514
0.28016382 0.20877536 2.9274826
0.27198693 0.21665047 2.9256668
0.28021988 0.21682607 2.9281528
0.27192414 0.22460105 2.9250748
0.28017887 0.22480214 2.927809
0.28008825 0.23273458 2.9269471
0.28823054 0.23284252 2.9284182
0.28011373 0.24076167 2.9273055
0.28823242 0.24085298 2.9285283
0.28008953 0.24874608 2.9271462
0.28832918 0.24894546 2.9296086
0.28008673 0.25674874 2.9272137
-0.32846344 0.26466709 2.927048
0.27189863 0.26457924 2.9252715
0.28005797 0.26472667 2.927012
0.27191445 0.27259499 2.925545
0.2801688 0.27283892 2.9282763
0.2319372 0.28064606 2.9256976
0.27190503 0.28058559 2.925549
0.28013548 0.28081301 2.9280324
0.23989317 0.28858849 2.9252954
0.2800763 0.28875852 2.92752
0.28008571 0.29677334 2.9277294
0.28004566 0.30473486 2.9274228
0.27997974 0.31266519 2.9268475
0.27986446 0.32053527 2.9257572
0.28819478 0.32090047 2.9292064
0.27979416 0.32845151 2.9251406
0.28817093 0.32888117 2.9290843
0.2879751 0.33665949 2.927211
0.28794685 0.34462744 2.9270482
0.28789204 0.35256132 2.9266174
0.2878592 0.36051974 2.9264128
0.28779992 0.36844239 2.9259408
0.28786829 0.38452753 2.9269102
0.28777808 0.39240342 2.9261296
0.28795171 0.40064126 2.9280419
0.28785709 0.40850815 2.9272208
0.28771204 0.41629675 2.9258869
0.70267606 0.41574538 2.9296284
0.71836048 0.42355803 2.9288743
0.72657096 0.42369005 2.9299557
0.28785002 0.43249306 2.9275923
0.71860456 0.43168536 2.929971
0.72646612 0.4395929 2.9297271
0.28788254 0.44854042 2.92823
0.71848983 0.44758064 2.929702
0.72592604 0.45521823 2.9277411
0.27960825 0.46408814 2.9255965
0.725797 0.46311197 2.9273198
0.27956983 0.47201467 2.9253528
0.72605783 0.47923344 2.9285786
0.27971655 0.48025694 2.9270542
0.27161604 0.48806739 2.926018
0.27972066 0.48825872 2.9272609
0.72532183 0.48671705 2.9257035
0.7253511 0.49470648 2.925926
0.27955908 0.49596673 2.92573
0.27955914 0.50395685 2.9258969
0.72578973 0.50298017 2.9278045
0.27960381 0.51202875 2.9265339
0.72580916 0.51096839 2.9279876
0.27950636 0.51983881 2.9256799
0.72517329 0.51848865 2.9255199
0.28781879 0.5284155 2.9292133
0.72565591 0.52680677 2.9275782
0.7173363 0.53452432 2.9261365
0.2956022 0.53601849 2.9273181
0.5352633 0.53582692 2.9299197
0.31139386 0.54366356 2.925812
0.32763049 0.54408967 2.928313
0.33565652 0.54413795 2.9286773
0.34368131 0.54418206 2.9290206
0.35176319 0.54431242 2.929832
0.37551537 0.5439555 2.9282384
0.38362178 0.54411459 2.9292119
0.39924294 0.54360795 2.9267108
0.40734208 0.54375476 2.9276235
0.41533911 0.54376221 2.9277854
0.42326301 0.54367542 2.9274399
0.49520448 0.54370838 2.9287903
0.50324506 0.54376227 2.9292181
0.51107275 0.54358822 2.9284148
0.51897746 0.54350001 2.928077
0.52691948 0.54345298 2.9279621
0.53476816 0.54331261 2.9273441
0.54247504 0.54303432 2.9259813
0.71751142 0.54262596 2.9269605
0.72607422 0.54306585 2.9294827
0.36736616 0.55171359 2.9270535
0.37525165 0.55155867 2.9263411
0.38309813 0.55135399 2.9253657
0.39116317 0.55146587 2.9260767
0.4390063 0.55136442 2.9262636
0.45514938 0.55157214 2.927624
0.46308637 0.55151027 2.927424
0.47140753 0.55190039 2.9296315
0.47922179 0.55169392 2.9286642
0.4871473 0.55162019 2.9284046
0.49478132 0.55122405 2.9264293
0.50269103 0.55114281 2.9261322
0.55042905 0.5509848 2.9261212
0.55866796 0.55123991 2.9276211
0.56695676 0.55153638 2.9293423
0.59887713 0.55150598 2.9297535
0.60687137 0.55151176 2.9299288
0.61471075 0.55137849 2.9293628
0.62264431 0.551332 2.9292598
0.63052076 0.55123675 2.9288969
0.64651746 0.55126119 2.929317
0.65432286 0.55111051 2.9286587
0.66233629 0.55113649 2.9289415
0.67029148 0.55111396 2.928966
0.71715593 0.55032438 2.9256141
0.72589231 0.55090547 2.928853
0.64597505 0.55877286 2.926976
0.65398848 0.55880344 2.9272795
0.66194445 0.55878472 2.9273238
0.66978639 0.55867136 2.9268711
0.71726286 0.55837494 2.9261601
0.72582382 0.55882841 2.9286826
0.65348989 0.56634587 2.9251633
0.66144061 0.56632769 2.9252098
0.68537581 0.56634414 2.9257169
0.69325167 0.56626558 2.9254496
0.70950341 0.56651312 2.9270101
0.7181235 0.56702304 2.9297905
0.72592747 0.56688434 2.929209
0.55810088 0.57459772 2.9250619
0.56619656 0.57471925 2.9258199
0.57419735 0.57474244 2.9260767
0.64556503 0.57435638 2.9253604
0.65384161 0.57462353 2.9268649
0.66152698 0.57437092 2.9257138
0.6695292 0.57439613 2.9259818
0.67758298 0.57446456 2.9264703
0.68546671 0.5743888 2.9262218
0.69357014 0.57449687 2.9269116
0.70150083 0.57446086 2.9268656
0.70971465 0.57465506 2.9279947
0.40686962 0.58301681 2.9250343
0.41496167 0.58317143 2.9259288
0.42301977 0.58327329 2.9265594
0.43089932 0.58312988 2.925957
0.43898961 0.58327156 2.9267907
0.55821043 0.58268452 2.9257791
0.56640095 0.58290374 2.9270198
0.58991909 0.58248568 2.9253252
0.59785765 0.58245033 2.9252846
0.65370846 0.58247763 2.9263897
0.66155493 0.5823648 2.9259589
0.6702131 0.58296067 2.9290993
0.31925115 0.59133655 2.9257348
0.35129201 0.59149516 2.9269187
0.35918644 0.59133971 2.9262514
0.3671957 0.59137613 2.9265375
0.37529638 0.591555 2.9275329
0.39156818 0.59199727 2.9299479
0.4074809 0.59188324 2.9296083
0.30356297 0.59988326 2.9284859
0.31159282 0.59995198 2.9289141
0.29570168 0.60814726 2.9298973
0.3036862 0.60812068 2.929858
-0.43319702 -0.28794175 2.933573
-0.37724271 -0.28807369 2.9339123
-0.36905211 -0.28794205 2.9324324
-0.36083561 -0.28778386 2.9306836
-0.34476826 -0.28775063 2.9300857
-0.14463538 -0.2881251 2.9315765
0.064036414 -0.26434219 2.9339046
0.29661274 -0.25601903 2.9324639
0.51296282 -0.24787691 2.9348228
0.52040792 -0.24760409 2.9317553
-0.10460248 -0.23217209 2.9329462
0.03990829 -0.22401547 2.9309044
0.15230894 -0.21606597 2.9323411
0.16035084 -0.2160852 2.9326653
0.16847824 -0.21621224 2.9344614
0.2244727 -0.2079629 2.9318187
0.23271669 -0.2081591 2.934684
0.24871778 -0.19205292 2.9339674
0.24055299 -0.18392335 2.9321494
0.24051712 -0.17587498 2.9316394
0.24043854 -0.16779922 2.9306104
0.2487538 -0.16799738 2.9341791
0.2404597 -0.15979496 2.9308035
0.24858643 -0.15986197 2.9321339
0.25658754 -0.1598465 2.9319499
0.26460728 -0.15984325 2.9319937
0.2809234 -0.15999486 2.9349988
0.24852207 -0.15180026 2.9313102
0.25660792 -0.15183696 2.9321215
0.26465061 -0.15184668 2.9324133
0.27273816 -0.15188082 2.933181
0.33698484 -0.15189071 2.9343264
0.24845561 -0.14374152 2.930465
0.25647414 -0.14373976 2.9305298
0.26451272 -0.14374898 2.9308224
0.27257305 -0.14376916 2.9313414
0.28082311 -0.14388537 2.9338279
0.28879094 -0.14385456 2.9333098
0.24042962 -0.13572092 2.930258
0.24863949 -0.1358238 2.932584
0.25666389 -0.1358221 2.9326482
0.26464117 -0.13579632 2.932194
0.2726362 -0.1357809 2.931967
0.28081691 -0.1358562 2.9337075
0.28873572 -0.1358041 2.9326923
0.29687157 -0.13585418 2.933892
0.17629428 -0.12772971 2.9301453
0.24056484 -0.12777475 2.9318581
0.24861091 -0.12778503 2.932193
0.25661269 -0.1277726 2.9320087
0.26456591 -0.12773752 2.9313054
0.27255872 -0.12772304 2.9310787
0.28071341 -0.12778307 2.9325709
0.28872681 -0.12777726 2.9325495
0.29688752 -0.12783514 2.9339981
0.33707535 -0.1278498 2.9349549
0.24049444 -0.11971717 2.9309478
0.24851713 -0.11971668 2.9310341
0.25651586 -0.11970504 2.9308498
0.26453322 -0.11970256 2.9308927
0.27259418 -0.11971933 2.931412
0.28079739 -0.11979584 2.9334016
0.28881314 -0.11979038 2.9333801
0.24046277 -0.11168228 2.9305139
0.28061795 -0.11169899 2.9314756
0.28875065 -0.1117411 2.9326973
0.28072095 -0.10371672 2.9325118
0.28888094 -0.10376456 2.9339821
0.27254856 -0.095642351 2.9307907
0.28089282 -0.095752046 2.9342728
0.26453695 -0.087626986 2.930768
0.27269015 -0.087668903 2.9322817
0.28094369 -0.087739751 2.9347692
0.25678116 -0.079690561 2.9336896
0.26458266 -0.079621442 2.9312427
0.2808921 -0.063639186 2.9341381
0.28079098 -0.055591006 2.9330549
0.25661111 -0.047548417 2.9316385
0.26451924 -0.047527265 2.9304354
0.2726258 -0.047541961 2.9314525
0.28073496 -0.047556255 2.9324472
0.28899303 -0.047594275 2.9349127
0.25660115 -0.039524548 2.9315071
0.27261525 -0.039519176 2.9313211
0.28072408 -0.039531056 2.9323161
0.2889086 -0.039552636 2.9340353
0.28066337 -0.031500891 2.9316654
0.28887057 -0.031520754 2.9336338
0.28062397 -0.023475977 2.9312415
0.28883007 -0.023490783 2.9332101
0.280606 -0.015454497 2.9310458
0.28871387 -0.015459012 2.932019
0.28058559 -0.0074339779 2.9308274
0.28871736 -0.0074367817 2.9320498
0.28051534 0.0005852693 2.9300902
0.2886695 0.0005855395 2.9315612
0.28065652 0.0086069852 2.931571
0.28874138 0.0086087715 2.9322953
0.28074783 0.016633816 2.9325323
0.28883526 0.016637268 2.9332566
0.72836471 0.016589938 2.9343646
0.28074169 0.024657309 2.9324765
0.2889511 0.024672851 2.9344447
0.72841042 0.024594346 2.9345551
0.28068569 0.032674644 2.9319012
0.28877139 0.032681428 2.9326255
0.72821033 0.032588761 2.9337544
0.28074613 0.040705662 2.9325492
0.28063789 0.04871086 2.9314332
0.28869784 0.048716847 2.9319086
0.28050354 0.056704592 2.9300468
0.28868181 0.056735583 2.9317665
0.28876105 0.064774781 2.9325976
0.28852034 0.072737738 2.9301736
0.2885215 0.080754995 2.9302156
0.28864223 0.088809118 2.931479
0.28871167 0.096852757 2.9322236
0.28877872 0.10489937 2.9329467
0.28862363 0.11286284 2.9314098
0.288515 0.12083716 2.9303493
0.28855038 0.12886976 2.9307592
0.72039431 0.12863646 2.9345922
0.72813588 0.12858963 2.9337196
0.28848571 0.13685687 2.9301531
0.72030276 0.13662237 2.9342546
0.72834355 0.13662893 2.9345951
0.28846744 0.14486367 2.9300227
0.72806579 0.1445764 2.9335108
0.28861752 0.15295868 2.9316099
0.72028124 0.15262231 2.9342468
0.72826225 0.15261716 2.9343452
0.28847247 0.16089742 2.9301941
0.28845435 0.20897798 2.9304428
0.28851199 0.21703643 2.9311123
0.28842112 0.22498226 2.9302721
0.72018176 0.22460933 2.9342999
0.72014356 0.23259792 2.9342048
0.72009999 0.24058384 2.9340897
0.72011036 0.24858738 2.9341965
-0.32891208 0.25701514 2.9309602
0.28839931 0.25701958 2.9304197
0.7201153 0.25658929 2.9342835
0.28846696 0.26509532 2.9312086
0.28841066 0.27305749 2.9307375
0.28852224 0.28118011 2.9319797
0.28846127 0.28913602 2.9314663
0.28844669 0.29713628 2.9314277
0.28833258 0.30503047 2.9303777
0.28838617 0.31310037 2.9310396
0.71206486 0.34456849 2.9347563
0.71110177 0.37605771 2.9311326
0.71090692 0.38394132 2.9304199
0.68787122 0.39246121 2.933996
0.71082366 0.39188206 2.9301696
0.7198053 0.39242303 2.9343991
0.71900976 0.39997724 2.9312403
0.6880098 0.4005394 2.9346879
0.69538939 0.40018088 2.9322245
0.72770178 0.40036267 2.9342439
0.687805 0.4084169 2.9339123
0.6951831 0.40805173 2.9314508
0.71897471 0.40794528 2.9311924
0.72736931 0.40817171 2.9329934
0.69525689 0.41608545 2.9318633
0.71905237 0.41597766 2.9316065
0.7272104 0.4160727 2.9324458
0.69515485 0.42401361 2.9315331
0.29651302 0.42544341 2.9341068
0.68795079 0.43249872 2.9348445
0.69521868 0.43204257 2.9319057
0.72675872 0.43178472 2.9308121
0.71866721 0.4397071 2.9303267
0.69561917 0.44028601 2.9337037
0.69538856 0.44813201 2.932833
0.72652489 0.44761109 2.9300637
0.28822786 0.47310486 2.9322262
0.28833035 0.48128477 2.9334333
0.54419726 0.48073781 2.9341919
0.28833443 0.48930332 2.9336379
0.7352584 0.48802042 2.9337158
0.28807181 0.49686217 2.9311228
0.68771458 0.49631566 2.9347019
0.28814378 0.50499278 2.9320238
0.68773413 0.50432563 2.9348974
0.6946668 0.50355238 2.930537
0.28814158 0.5129953 2.9321687
0.28801715 0.52077681 2.9310677
0.32037556 0.52131784 2.9345162
0.32842138 0.52136707 2.9348977
0.33641014 0.52132553 2.9347694
0.31232214 0.52926362 2.9342189
0.32830536 0.52919209 2.9340253
0.30411413 0.53693104 2.9324124
0.31993383 0.53659946 2.9307942
0.32785982 0.53647226 2.9301999
0.3360588 0.53678709 2.932029
0.34417871 0.53696394 2.933104
0.3519502 0.5366016 2.9312272
0.40809762 0.53676063 2.9329093
0.41610885 0.53676724 2.9330683
0.42411724 0.53676999 2.9332073
0.44008812 0.53671902 2.9331818
0.4962382 0.53683954 2.9347732
0.51975888 0.53632224 2.9323537
0.52775556 0.53631926 2.9324777
0.54382676 0.5363903 2.9331524
0.64780253 0.53636348 2.9349105
0.72625148 0.53521872 2.9300938
0.35987592 0.54448378 2.9308662
0.36786884 0.54447019 2.9309042
0.39172983 0.54426944 2.9301646
0.44770369 0.54424703 2.9309058
0.455993 0.54459423 2.9329104
0.46375248 0.54430759 2.931493
0.4721626 0.54478151 2.9341848
0.47975126 0.54430747 2.9317575
0.48752412 0.54405463 2.9305258
0.55143982 0.5440051 2.9313698
0.55950874 0.54407698 2.931901
0.56785536 0.54441303 2.933861
0.57587701 0.54443258 2.9341106
0.58356017 0.54413593 2.9326518
0.59152186 0.54410356 2.9326217
0.59967524 0.54424596 2.9335372
0.60767925 0.54425085 2.9337099
0.61547786 0.54407406 2.9329
0.62352246 0.54411638 2.9332752
0.63156402 0.54415506 2.9336309
0.63881868 0.54352331 2.9303615
0.64695036 0.54364413 2.9311612
0.65513468 0.54380566 2.9321811
0.66304874 0.54374164 2.9319816
0.57553303 0.55210042 2.9324899
0.58311653 0.55170965 2.9305511
0.59112144 0.55172276 2.9307647
0.71816236 0.57503211 2.930058
0.68683714 0.58352262 2.9322057
0.69535118 0.58396363 2.9345651
0.70313072 0.58378476 2.9337993
0.3836529 0.59212118 2.9304523
0.39970845 0.5922116 2.9311242
0.41616839 0.59287107 2.934628
0.42410952 0.59277862 2.9342856
0.43215197 0.59282839 2.9346514
0.46403408 0.59264296 2.9342182
0.47213879 0.59276897 2.9349687
0.51202708 0.59260488 2.9347947
0.51994854 0.59251106 2.9344597
-0.15299603 -0.28876188 2.9381337
0.28904289 -0.25642052 2.9369645
0.50528634 -0.24804477 2.9366448
0.048065163 -0.2246318 2.9390104
0.25695229 -0.20023876 2.9364867
0.2813223 -0.2004243 2.9395325
0.25700507 -0.19224526 2.9370146
0.26510495 -0.19229001 2.937803
0.27327538 -0.19238177 2.9393153
0.28933942 -0.19236597 2.9392934
0.2488299 -0.18410927 2.9352193
0.25722927 -0.18437128 2.9395099
0.26520193 -0.18432088 2.9388068
0.24889798 -0.1761272 2.9359534
0.25714773 -0.17627373 2.938504
0.26505071 -0.1761809 2.9370551
0.27326554 -0.1762947 2.939064
0.28940201 -0.1763247 2.9397869
0.25691217 -0.16808049 2.9357359
0.26494199 -0.16807702 2.9357786
0.27301532 -0.16810055 2.9362969
0.28120705 -0.16819356 2.938036
0.2891371 -0.16812922 2.9370205
0.29733416 -0.16821943 2.9387159
0.30548581 -0.1682799 2.9398932
0.28896725 -0.1600011 2.9352257
0.29715967 -0.16008702 2.9369221
0.30530661 -0.16014461 2.9380991
0.32152861 -0.16021527 2.9396434
0.33761173 -0.16021328 2.9398613
0.28101677 -0.1520163 2.9359152
0.2889657 -0.15197092 2.9351485
0.29713297 -0.15203969 2.9365962
0.30499616 -0.15195335 2.9350417
0.31332299 -0.15209652 2.9379356
0.32120201 -0.15202057 2.9365878
0.32923681 -0.15202026 2.9367082
0.34512356 -0.15193918 2.9353971
0.35341313 -0.15205036 2.9376853
0.36158982 -0.15210909 2.9389601
0.36958322 -0.15208986 2.9387262
0.29697847 -0.14393188 2.9350066
0.30501762 -0.1439351 2.9351907
0.31316018 -0.1439857 2.9363468
0.36929816 -0.14394315 2.9363966
0.37737563 -0.14396012 2.9368856
0.63391244 -0.14383593 2.9398997
0.64983076 -0.13578415 2.9396338
0.65776289 -0.13576493 2.9394138
0.70573449 -0.13573162 2.9398823
0.31306428 -0.12788299 2.935339
0.32910341 -0.12787266 2.9353518
0.34518707 -0.12787978 2.9357772
0.35332933 -0.12791947 2.9368255
0.37735474 -0.12789236 2.9366202
0.40151018 -0.12790991 2.9374652
0.64991438 -0.12777886 2.9399734
0.71371311 -0.12770517 2.9398644
0.72165418 -0.12769091 2.9397347
0.36173305 -0.12001015 2.9399195
0.36976042 -0.12000497 2.9399323
0.29705143 -0.119875 2.9355741
0.30524692 -0.11993833 2.9372487
0.31328973 -0.11993997 2.9374104
0.32124892 -0.11991031 2.936806
0.329368 -0.11994033 2.9376705
0.33740306 -0.11993905 2.9377687
0.34555146 -0.11997718 2.9388378
0.38580397 -0.11999176 2.9398954
0.39381975 -0.11998374 2.9398456
0.42576742 -0.11992218 2.9389441
0.43375903 -0.11990948 2.938791
0.52199048 -0.1198702 2.9396999
0.53788841 -0.11983234 2.939132
0.71368027 -0.11968151 2.9396942
0.72168016 -0.11967798 2.9398067
0.29723796 -0.11191446 2.9373772
0.30536121 -0.11194523 2.9383059
0.71370077 -0.11166693 2.9397461
0.721582 -0.11164522 2.9393733
0.2973468 -0.10391671 2.9384134
0.7136569 -0.10364255 2.9395351
0.7215969 -0.10363092 2.9394045
0.28908211 -0.095804267 2.9359915
0.72130942 -0.095576197 2.9382024
0.28918323 -0.087802418 2.936985
0.72131336 -0.087563232 2.9381928
0.28923309 -0.079780802 2.9374597
0.28915843 -0.07172554 2.9366691
0.72142345 -0.071547203 2.9385982
0.28920341 -0.06370078 2.9371002
0.72141075 -0.063531391 2.9385276
0.2890262 -0.055630736 2.935271
0.29734558 -0.055684082 2.938211
0.29743698 -0.04766003 2.9390967
0.7214877 -0.047507342 2.9388106
0.2974506 -0.039620671 2.9392145
0.72157729 -0.039496835 2.9391642
0.72112632 -0.031460755 2.9373121
0.72114533 -0.023449974 2.9373822
0.72098058 -0.015434842 2.9367034
0.72920716 -0.015439358 2.937768
0.72092909 -0.0074245334 2.9364898
0.7292152 -0.007427318 2.9377973
0.7290374 0.00058474869 2.937078
0.72903413 0.0085949665 2.9370661
0.72074109 0.040620103 2.9357498
0.7288453 0.040625319 2.9363301
0.72905427 0.048647407 2.937187
0.72114915 0.0566664 2.9374442
0.72164208 0.064722255 2.9394751
0.72147554 0.072722606 2.9388139
0.72124428 0.080711998 2.9378905
0.72971421 0.0807622 2.9399252
0.72136384 0.088739417 2.9384029
0.72941488 0.088743493 2.9387393
0.72106206 0.096712969 2.9371955
0.72868991 0.096661724 2.9358354
0.7211113 0.1047308 2.9374247
0.72867978 0.1046667 2.9358218
0.72109556 0.11273957 2.9373906
0.72902417 0.11272628 2.9372432
0.71308059 0.12075055 2.9372215
0.72089607 0.12071722 2.9366078
0.72900271 0.12073284 2.9371889
0.73759162 0.12082712 2.9396889
0.29748338 0.12926592 2.9399118
0.70534593 0.12881275 2.9382267
0.69765276 0.13689065 2.9394367
0.29737294 0.1452968 2.938925
0.29742673 0.15336399 2.939517
0.29732776 0.16135117 2.9385974
0.32959127 0.16139843 2.9399486
0.72052938 0.16067965 2.9353037
0.72875291 0.16072713 2.9363708
0.29722631 0.16933161 2.9376566
0.72047532 0.16867176 2.9351275
0.72887838 0.16876329 2.9369226
0.29722261 0.17736487 2.9376879
0.72065312 0.17671952 2.9359012
0.72929788 0.17687355 2.9386644
0.72088462 0.18478498 2.9368961
0.7294122 0.18491563 2.9391749
0.29724151 0.18541203 2.9379458
0.29718283 0.19340973 2.9374373
0.72063619 0.19272725 2.9359322
0.72922111 0.19287948 2.9384532
0.29722184 0.20147046 2.9379008
0.71262866 0.20073377 2.9357991
0.72056031 0.20071208 2.9356756
0.72926438 0.20090367 2.9386806
0.29733342 0.2095845 2.9390867
0.71243072 0.20868175 2.9350367
0.72065681 0.20874515 2.936125
0.72930223 0.20892726 2.9388883
0.29729244 0.21759284 2.9387627
0.7206887 0.21676093 2.9363124
0.72921467 0.21691439 2.938591
0.72882241 0.22480559 2.9370639
0.29719889 0.22555912 2.9379208
0.29712805 0.23353818 2.9373066
0.30532575 0.23366167 2.9389801
0.32146838 0.23370631 2.9397821
0.72878408 0.23280123 2.936969
0.2972798 0.24169438 2.9389024
0.7283811 0.24067555 2.9354026
0.29727903 0.24973065 2.9389887
0.36961585 0.24971235 2.9398994
0.40164566 0.24963181 2.9395125
0.68960804 0.24913372 2.9399011
0.72904998 0.24890697 2.9381702
0.29727587 0.25776479 2.9390543
0.35349911 0.25772166 2.9394169
0.39363334 0.25768185 2.939647
0.40154171 0.25759885 2.9388411
0.68961132 0.25715262 2.9399853
0.72947377 0.2570667 2.9399493
0.72082531 0.26485029 2.9372535
0.38564605 0.26575089 2.9399865
0.34551147 0.2738333 2.9399226
0.35351372 0.27380389 2.9397349
0.40166038 0.27374297 2.9399033
0.7208786 0.27287853 2.9375412
0.29727685 0.28187618 2.9393706
0.34547085 0.28183681 2.9396784
0.36955416 0.28181052 2.9397964
0.7207489 0.28083667 2.9370835
0.34545648 0.28986049 2.9396613
0.35351691 0.28987813 2.9399686
0.72096902 0.28893203 2.9380567
0.33737749 0.2978605 2.9392934
0.34543934 0.2978811 2.9396224
0.35349941 0.29789925 2.9399304
0.72106528 0.29698136 2.9385257
0.32932261 0.30587921 2.9391303
0.33738625 0.30590287 2.9394808
0.34544837 0.30592409 2.9398103
0.36953095 0.30589625 2.9399309
0.39351562 0.30579573 2.9393721
0.40152317 0.30577457 2.9393089
0.41756019 0.30575073 2.9393675
0.72109711 0.30500552 2.9387326
0.32927322 0.31386617 2.938802
0.33733574 0.31389049 2.9391527
0.34531 0.3138335 2.9387417
0.36944523 0.31385788 2.9393582
0.37740102 0.31379107 2.9388647
0.38518921 0.31359065 2.9371178
0.3933261 0.31367639 2.9380617
0.40950063 0.31376192 2.9391482
0.36142662 0.32190609 2.9394841
0.36944932 0.32189405 2.9395049
0.3773737 0.32179868 2.9387648
0.38538712 0.32178167 2.9387443
0.39346239 0.32181588 2.9391956
0.40146911 0.32179376 2.9391332
0.40940323 0.32171553 2.9385583
0.41736516 0.32166171 2.9382091
0.29716414 0.32997209 2.9389377
0.31322643 0.32995906 2.9390464
0.32126674 0.32996246 2.9391925
0.32919425 0.32985264 2.9383302
0.34516978 0.32976353 2.9377782
0.36948141 0.3299554 2.9398775
0.37734357 0.32980263 2.9386451
0.38542083 0.32984039 2.9391172
0.39349693 0.32987556 2.939569
0.40153801 0.32988057 2.9397531
0.40950781 0.32982799 2.9394245
0.33739623 0.33001658 2.9399157
0.29693773 0.33774838 2.936815
0.305105 0.33789906 2.9382398
0.31311938 0.33787706 2.9381609
0.32118395 0.33790892 2.9385545
0.32921982 0.33790982 2.9386804
0.33733776 0.33799288 2.9395256
0.36124453 0.33780181 2.938235
0.37721568 0.33771786 2.9377649
0.43359828 0.33784971 2.9399004
0.29680878 0.34562588 2.9356613
0.31298363 0.34575778 2.9370077
0.32093725 0.34567469 2.9364145
0.32921517 0.34593642 2.9387627
0.33730489 0.34599259 2.9393613
0.36127013 0.34585527 2.9385655
0.36935145 0.34590048 2.93908
0.37733731 0.34585628 2.9388351
0.29675227 0.35358271 2.9352283
0.30486351 0.35368139 2.9361596
0.31300285 0.35380682 2.9373159
0.32117221 0.35395893 2.9386973
0.32929063 0.35404894 2.9395642
0.71218199 0.35262609 2.9353275
0.29696715 0.36186722 2.9374902
0.30498201 0.36184689 2.9374337
0.31307209 0.36191455 2.9380963
0.32127005 0.36210045 2.9397242
0.32925326 0.36204106 2.9393578
0.33723116 0.36197889 2.9389706
0.34523255 0.36194417 2.9388092
0.37738234 0.36195853 2.9394348
0.71252728 0.36080188 2.9368436
0.29690593 0.36981943 2.9370153
0.35327572 0.36998427 2.9391408
0.71222514 0.36865035 2.9356854
0.30514908 0.37007749 2.9391799
0.33733138 0.37011984 2.9399767
0.34530637 0.37005347 2.939569
0.29696673 0.37792364 2.9377539
0.33728799 0.37810448 2.9397297
0.34514666 0.37791049 2.9383371
0.35323054 0.37796634 2.9388952
0.36134407 0.37805066 2.939678
0.37735245 0.37798962 2.9394584
0.6808024 0.37698242 2.9376612
0.72020394 0.37663811 2.9358444
0.72914612 0.377123 2.9398098
0.68078113 0.3849788 2.9376667
0.72847104 0.38477784 2.9371705
0.29714948 0.38618958 2.9397042
0.3372983 0.3861486 2.9399545
0.34524393 0.38604742 2.9393017
0.29708123 0.39413249 2.9391668
0.30507398 0.39407775 2.9388647
0.32910579 0.39399382 2.9385734
0.33713698 0.3939926 2.9386811
0.34507897 0.39388955 2.9380293
0.35327944 0.3940796 2.9395726
0.38538861 0.39405212 2.9398749
0.41733778 0.39387789 2.9391117
0.68075478 0.39297184 2.9376521
0.7283864 0.39273623 2.9369199
0.2970356 0.40210226 2.9388556
0.32922068 0.40216291 2.9397416
0.3372266 0.40212816 2.9396036
0.34519964 0.40205678 2.9391983
0.35328501 0.40211642 2.9397566
0.39320979 0.40186509 2.9385505
0.40111274 0.40173873 2.9377573
0.40904164 0.40164286 2.9371896
0.41713732 0.4017112 2.9378283
0.4253386 0.40187672 2.939182
0.43325469 0.40177175 2.9385531
0.44142014 0.40189764 2.9396195
0.47346735 0.40183666 2.9397616
0.48946562 0.40178832 2.9397118
0.68077952 0.40099436 2.9378595
0.73640364 0.40074515 2.9372256
0.29691321 0.40996358 2.9377847
0.39327925 0.40996316 2.939208
0.40125066 0.40990269 2.9389062
0.40928465 0.40990737 2.9390745
0.41707268 0.4096702 2.937506
0.42520204 0.409771 2.9383695
0.43326002 0.4098005 2.9387221
0.44116908 0.40969068 2.9380741
0.4494437 0.40991819 2.9398549
0.68035316 0.40874633 2.9361157
0.73672891 0.4089289 2.9386196
0.30500361 0.41004407 2.9384694
0.31304237 0.41005281 2.9386408
0.34520239 0.4100894 2.939362
0.29676384 0.41778028 2.9364481
0.30474839 0.41772279 2.9361484
0.31293744 0.41794133 2.9377973
0.39331302 0.418026 2.9395993
0.40921792 0.41786513 2.938731
0.41717848 0.41779745 2.9383895
0.4253453 0.41793501 2.9394979
0.43329802 0.41786101 2.9391155
0.44131798 0.41785333 2.939203
0.44933432 0.41784257 2.93927
0.47335964 0.41779158 2.9393504
0.48131981 0.41773379 2.9390922
0.68070281 0.41696373 2.9377322
0.6880464 0.41655976 2.9350464
0.68816996 0.42463556 2.9356782
0.7367028 0.42492735 2.938704
0.30477118 0.42577648 2.9365158
0.31285635 0.42585701 2.9371803
0.32894552 0.42590123 2.9377079
0.4093183 0.42599425 2.9395931
0.417281 0.42592537 2.9392517
0.4334048 0.42599046 2.9399781
0.65721959 0.42532644 2.9397962
0.68082434 0.42504686 2.9383624
0.29695445 0.43410489 2.9386377
0.31279901 0.4338015 2.9367893
0.32902271 0.43402791 2.9385474
0.33705246 0.43402731 2.938657
0.36920419 0.43406358 2.9393809
0.37728274 0.43411839 2.939878
0.44138581 0.43396869 2.939929
0.64917958 0.43332544 2.9396367
0.68071818 0.43298808 2.9380085
0.736292 0.43269241 2.9371562
0.2968232 0.44193763 2.9374869
0.33707282 0.44208071 2.9389839
0.34501427 0.44196633 2.9383366
0.36111698 0.442022 2.9389453
0.38516021 0.44196954 2.938967
0.64923126 0.44137424 2.9399834
0.68828982 0.44071427 2.9364007
0.73659623 0.44087645 2.9384704
0.30482545 0.44992402 2.9374943
0.31280789 0.44985932 2.937176
0.32081223 0.44982854 2.9370828
0.33666947 0.44956928 2.9356072
0.34474528 0.4496406 2.9361889
0.35299724 0.4499332 2.9382224
0.36881706 0.44964632 2.9365833
0.4412207 0.44985166 2.9391065
0.55335617 0.44966438 2.9399662
0.37720129 0.45007789 2.9395339
0.28861848 0.45770666 2.935894
0.31284785 0.45794058 2.9377069
0.32088009 0.45794767 2.93786
0.3288278 0.45783666 2.9372554
0.33662876 0.45753148 2.9354033
0.34490475 0.45787114 2.9377034
0.35304287 0.45801651 2.9387548
0.36100298 0.45792961 2.938314
0.44929639 0.45792478 2.9397128
0.54511398 0.45749953 2.9387529
0.55316031 0.45752168 2.9390514
0.56129593 0.45761597 2.9398158
0.68098342 0.45718864 2.9394801
0.73634952 0.45673412 2.9376802
0.68832052 0.46474203 2.9368534
0.73573947 0.46435171 2.9353383
0.28855664 0.46562654 2.9354212
0.29701063 0.46630561 2.9398146
0.30497706 0.4662036 2.9392717
0.31304193 0.46625337 2.9396911
0.32102573 0.46618301 2.939353
0.32875803 0.46575969 2.936785
0.33678189 0.4657599 2.936897
0.34483185 0.46579525 2.9372339
0.35308591 0.4660984 2.9392669
0.36098704 0.46593258 2.9383357
0.44111601 0.46578631 2.9386933
0.4489812 0.46562138 2.9377878
0.45721593 0.46583879 2.9393029
0.54487193 0.46530887 2.9375751
0.55296063 0.46537006 2.938117
0.56123239 0.46558136 2.9396107
0.29677159 0.47395349 2.9376011
0.30473182 0.47385016 2.9370596
0.31279039 0.473901 2.93748
0.32095498 0.47410601 2.9388604
0.32879534 0.47383374 2.9372759
0.33673614 0.47371575 2.9366529
0.35283259 0.47378433 2.9373064
0.36099845 0.47397077 2.9385829
0.36916769 0.47415346 2.9398377
0.43318564 0.47390971 2.939342
0.44102231 0.47370636 2.9382129
0.44881177 0.47346047 2.93682
0.4570438 0.47368193 2.9383364
0.46504867 0.4736644 2.9383678
0.4731279 0.47372183 2.9388669
0.54480582 0.47326392 2.9373496
0.55275726 0.4732095 2.9371645
0.56098008 0.47338566 2.9384155
0.57705152 0.47341621 2.9389169
0.68796515 0.47250071 2.935442
0.73572373 0.47233763 2.9353755
0.29680261 0.48202708 2.9380698
0.3049669 0.48224327 2.9394925
0.31287533 0.48205423 2.9384403
0.32090867 0.48206219 2.9385941
0.32904908 0.48222679 2.9397082
0.33691213 0.4819867 2.93835
0.34496534 0.48202351 2.9386866
0.35298777 0.48201656 2.9387586
0.36094716 0.48192582 2.9383194
0.36902338 0.48199156 2.9388402
0.42520982 0.48198903 2.9397051
0.43301851 0.4817462 2.9383523
0.44110814 0.48181912 2.9389331
0.44927111 0.4819681 2.939981
0.49704283 0.48159248 2.9385307
0.55305082 0.48147565 2.9388611
0.56113952 0.481536 2.9393842
0.56922626 0.48159298 2.939887
0.57721597 0.48156744 2.9398859
0.59318084 0.48150659 2.9398248
0.68816721 0.48064047 2.9364169
0.73576283 0.48035896 2.9356329
0.29673254 0.4899354 2.937537
0.30476809 0.48995125 2.9377327
0.31274962 0.48988178 2.9374173
0.32883516 0.48993537 2.9379511
0.34485617 0.48989233 2.9379125
0.36092317 0.48991564 2.9382811
0.44122705 0.4899717 2.9398763
0.44924372 0.4899613 2.9399488
0.50520635 0.48974809 2.9396529
0.51272303 0.48926532 2.9368925
0.52848369 0.48901668 2.9356911
0.53657359 0.48908892 2.9362755
0.55288517 0.48934382 2.9381118
0.56106412 0.48948604 2.9391203
0.56882274 0.48926276 2.9379282
0.68808359 0.48858199 2.9361694
0.32099345 0.49021628 2.9395337
0.33705741 0.49022132 2.93978
0.35299349 0.49004832 2.9389644
-0.33720726 0.49782914 2.9374676
0.29658616 0.4977119 2.9362476
0.30466864 0.49781123 2.9369349
0.31269979 0.49782372 2.9371107
0.32086232 0.49803951 2.9384916
0.32883772 0.4979614 2.9381359
0.33689207 0.49800372 2.9384942
0.34471583 0.49771115 2.9368732
0.3527914 0.49778721 2.9374361
0.36065689 0.49756998 2.936265
0.36878827 0.49772114 2.9372759
0.37714055 0.49815759 2.9399781
0.48923653 0.4978438 2.9399621
0.4969824 0.4975656 2.9384568
0.50488251 0.49744809 2.9379048
0.52096111 0.49748981 2.9384432
0.53711569 0.49759945 2.9393883
0.54503268 0.49750558 2.9389811
0.59282613 0.49723983 2.9383175
0.60114205 0.49748966 2.9399526
0.73606521 0.49655545 2.937047
0.73596978 0.5044896 2.9367676
-0.33692735 0.50542939 2.9351842
0.29661059 0.50577176 2.9366562
0.30461776 0.50574648 2.9366083
0.32064891 0.50572634 2.9366951
0.32859191 0.50560534 2.9360957
0.3366684 0.50569063 2.9367001
0.34451583 0.50543588 2.9353259
0.35261628 0.50555545 2.9361341
0.3605679 0.5054611 2.9356983
0.36900356 0.50603467 2.9391553
0.45707834 0.50579453 2.9391484
0.46508491 0.50577694 2.939182
0.47316557 0.50583929 2.939683
0.48112562 0.50577259 2.9394336
0.49702886 0.50562859 2.9388759
0.51282406 0.50538719 2.9377551
0.52113944 0.50567746 2.9395928
0.53712314 0.5056228 2.9395673
0.54517519 0.50565261 2.9398887
0.57711577 0.50552881 2.9397671
0.58500457 0.50541669 2.939265
0.59312892 0.50550848 2.9399526
0.60110432 0.50547254 2.9398956
0.29668218 0.51391453 2.9375341
0.31248939 0.51351786 2.9354587
0.3205134 0.51352733 2.9356153
0.32848045 0.51344734 2.9352615
0.34459975 0.51357448 2.9362063
0.35273153 0.51373869 2.9372592
0.36083564 0.51385635 2.9380465
0.36897111 0.51401252 2.9390569
0.4891623 0.51380646 2.9398062
0.49715361 0.5137741 2.9397614
0.51308018 0.51365638 2.9393699
0.53703851 0.51355839 2.9392421
0.56113702 0.51359713 2.9399073
0.56899154 0.51344836 2.9392023
0.58481914 0.51326722 2.9384625
0.59274709 0.51319253 2.9381845
0.6010626 0.51345092 2.9398198
0.3124848 0.52152479 2.9355829
0.34462389 0.52162653 2.9365768
0.36095089 0.52204287 2.9391501
0.36884436 0.52185547 2.9382062
0.3769792 0.52201021 2.9391961
0.38495642 0.52194482 2.9389451
0.40092906 0.52184558 2.9386256
0.40902698 0.5219413 2.9392893
0.41691771 0.52177405 2.9384696
0.43303248 0.52185977 2.9392085
0.44105044 0.52185369 2.9393039
0.46485263 0.52155417 2.93801
0.48891851 0.5215655 2.9384844
0.53690606 0.52144498 2.9386554
0.58501339 0.521451 2.939574
0.59294438 0.52137548 2.9392967
0.64086491 0.52123433 2.9394035
0.64886081 0.52122021 2.9394751
0.36064461 0.52961552 2.9368134
0.38456696 0.52942961 2.9361241
0.40851277 0.52929592 2.9357419
0.4164629 0.52921438 2.9354119
0.42482895 0.52965444 2.9379859
0.43241781 0.52912724 2.9351799
0.44108048 0.52990925 2.9396594
0.46500018 0.52973723 2.9390974
0.48100013 0.52969092 2.93911
0.5366376 0.52919346 2.9373229
0.54504168 0.52957368 2.9395838
0.56104314 0.52954012 2.939688
0.58477205 0.52924591 2.9384913
0.59289449 0.52934313 2.9391806
0.63286549 0.52925611 2.9394429
0.64060497 0.52902961 2.9383311
0.6483866 0.52884316 2.9374423
0.65642631 0.52886915 2.9377367
0.73619151 0.52864432 2.9379661
0.4484565 0.53715366 2.9356933
0.46449271 0.53716773 2.9360325
0.4885422 0.53718185 2.9365132
0.55235714 0.53690529 2.9361203
0.56025451 0.53679895 2.9356816
0.56856453 0.53708547 2.9373984
0.57664269 0.53714806 2.9378874
0.5842396 0.53676677 2.9359419
0.59230691 0.53682214 2.9363921
0.6008141 0.53726941 2.9389932
0.62439716 0.53687537 2.9372749
0.63992262 0.53646433 2.9353161
0.65604997 0.53656572 2.9361687
0.73595715 0.53647441 2.9371326
0.73571819 0.54429597 2.936281
0.73630923 0.55273539 2.9387517
0.67954493 0.58412153 2.9350872
0.71257335 0.58497506 2.9399347
0.72046906 0.58488321 2.9396064
0.44037387 0.59311801 2.9362094
0.44830492 0.59301257 2.9358072
0.456305 0.59300065 2.9358706
0.48040119 0.59308553 2.936667
0.48854822 0.59325153 2.937619
0.49657375 0.59326708 2.9378242
0.50455481 0.59322983 2.9377687
0.52803719 0.59260768 2.9350712
0.53612465 0.59270012 2.9356632
0.54434437 0.59293395 2.9369583
0.55247617 0.59306651 2.9377511
0.57682157 0.59339088 2.9397683
0.59269142 0.5932318 2.9392505
0.60878491 0.59329903 2.9398587
0.62476391 0.59325403 2.9399095
0.63261771 0.5931052 2.9393067
0.64056778 0.59304923 2.9391658
0.3685348 0.60154557 2.9374144
0.36043468 0.60941666 2.9367988
-0.41881332 -0.28908247 2.9449294
0.0400264 -0.28099489 2.9403205
-0.20974557 -0.27328971 2.9449253
0.27336213 -0.25678617 2.9409492
0.4980104 -0.24841784 2.9409053
-0.3143144 -0.24091917 2.9440091
-0.096885659 -0.23292419 2.9424348
0.056156583 -0.22480935 2.9413617
0.17700164 -0.21681282 2.9427061
0.18489701 -0.21662532 2.9402266
0.19315135 -0.21685646 2.9434488
0.24129893 -0.20863469 2.9415028
0.28947508 -0.20049967 2.9407523
0.29785669 -0.20072514 2.9441836
0.28137997 -0.19242327 2.9400604
0.297492 -0.1924367 2.9404917
0.30567363 -0.19252202 2.941916
0.27337521 -0.18440877 2.9403186
0.28160122 -0.18452618 2.9423048
0.28951812 -0.18444015 2.941041
0.29775077 -0.18455444 2.9429836
0.30588785 -0.18460506 2.9439108
0.28151205 -0.17642187 2.9412994
0.29765645 -0.17644887 2.941978
0.30591959 -0.17657153 2.9441471
0.31385174 -0.16845223 2.9430335
0.32182544 -0.16841069 2.9424291
0.31364149 -0.16029526 2.9409924
0.32962701 -0.16024187 2.9402592
0.34576517 -0.16026421 2.9409304
0.35380191 -0.16025996 2.9409859
0.36207849 -0.16036212 2.9430029
0.3703621 -0.16046293 2.9449975
0.37788883 -0.1521972 2.940948
0.38626745 -0.15232882 2.9436431
0.39419374 -0.15228036 2.9428504
0.40224668 -0.15228176 2.9430265
0.41022789 -0.15225649 2.9426877
0.41799292 -0.15215354 2.940845
0.42617232 -0.15220241 2.9419479
0.43431699 -0.15223731 2.9427824
0.4424988 -0.15228374 2.9438424
0.45034307 -0.15221441 2.9426603
0.45829156 -0.15218212 2.942198
0.46599934 -0.15207238 2.9402359
0.47424689 -0.15213956 2.9417064
0.48233658 -0.15215467 2.9421692
0.49042419 -0.15216865 2.9426117
0.54673529 -0.15217088 2.943903
0.56285393 -0.15217948 2.9444399
0.64201677 -0.14385325 2.9404504
0.6499033 -0.14382197 2.9400058
0.69895238 -0.14400575 2.9449627
0.70598865 -0.14380202 2.9409831
0.63399941 -0.13583112 2.9402606
0.64210445 -0.1358474 2.9408107
0.66651356 -0.13591309 2.9428291
0.69818372 -0.13582332 2.9416747
0.71397543 -0.13577323 2.940985
0.73063707 -0.1358871 2.9438584
0.64213413 -0.12782784 2.9409065
0.65811932 -0.12781353 2.9409716
0.6665439 -0.12788953 2.942924
0.6978696 -0.12774175 2.9403098
0.73066884 -0.12786484 2.9439509
0.35376161 -0.12003453 2.9403815
0.37787938 -0.1200291 2.9406679
0.40189877 -0.11999492 2.9402699
0.40990731 -0.11998502 2.9401789
0.50636339 -0.11997467 2.9419119
0.51422518 -0.11993287 2.9410617
0.53009731 -0.11988669 2.9402862
0.54612333 -0.119877 2.9404144
0.58620006 -0.11985752 2.9408751
0.60250682 -0.11990538 2.9424374
0.61865461 -0.11991995 2.9431841
0.62641209 -0.1198664 2.9420617
0.63421082 -0.11982202 2.941165
0.6421057 -0.11979667 2.940738
0.65015417 -0.11980025 2.9410238
0.65819865 -0.11980303 2.9412901
0.66656911 -0.11986434 2.9429989
0.69795293 -0.1197356 2.9406261
0.31372395 -0.11205997 2.9414485
0.32172117 -0.11204166 2.9410911
0.32971311 -0.11202246 2.9407127
0.33789852 -0.11206835 2.9420507
0.34594223 -0.11206617 2.9421258
0.35416123 -0.11211962 2.9436686
0.36189827 -0.11202148 2.941222
0.36999142 -0.11203545 2.94173
0.3780517 -0.11203909 2.9419689
0.38594747 -0.11199483 2.9409482
0.39386693 -0.11195912 2.940155
0.4022167 -0.11204471 2.9425592
0.4102658 -0.1120448 2.9427142
0.41817132 -0.11200646 2.941859
0.42624664 -0.1120142 2.9422195
0.43439248 -0.1120398 2.9430532
0.44246444 -0.1120458 2.943372
0.45045829 -0.11203215 2.9431753
0.50667632 -0.11200641 2.9436944
0.51462859 -0.11198603 2.9433353
0.52226919 -0.11189949 2.9412344
0.53038007 -0.11191482 2.9418197
0.53830975 -0.11189202 2.9414012
0.54691458 -0.11200817 2.944648
0.57095081 -0.11198819 2.9446831
0.57900077 -0.11198921 2.9449
0.62684655 -0.11191381 2.9440722
0.63470292 -0.11188156 2.9434183
0.64255047 -0.11184859 2.9427454
0.65060413 -0.11185186 2.9430301
0.65898013 -0.11190981 2.9447579
0.6905812 -0.11181997 2.9431853
0.73089588 -0.11184322 2.9448028
0.30601367 -0.10412925 2.9445605
0.73079097 -0.10379764 2.9443491
0.29777926 -0.09601742 2.9426601
0.73038048 -0.095714323 2.9426627
0.29768252 -0.08793842 2.9416647
0.73056448 -0.087711409 2.9433811
0.29760832 -0.079870701 2.940896
0.73008263 -0.079631805 2.9414108
0.29763201 -0.071830608 2.9411004
