ply
format ascii 1.0
comment PCL generated
element vertex 1505
property float x
property float y
property float z
element face 0
element camera 0
property float view_px
property float view_py
property float view_pz
property float x_axisx
property float x_axisy
property float x_axisz
property float y_axisx
property float y_axisy
property float y_axisz
property float z_axisx
property float z_axisy
property float z_axisz
property float focal
property float scalex
property float scaley
property float centerx
property float centery
property int viewportx
property int viewporty
property float k1
property float k2
end_header
-3.2513266 2.4807241 4.4241285
-3.1146324 2.4883792 4.4381638
-3.0153167 2.4718761 4.4412117
-2.9876642 2.4648645 4.4335527
-2.8368008 2.4999721 4.4419069
-2.7509234 2.4854026 4.4600964
-2.7015915 2.4729216 4.4710078
-2.6165452 2.4895492 4.4727926
-2.5505736 2.4849319 4.4674554
-2.478996 2.4764106 4.4681387
-2.4174089 2.4838951 4.4725537
-2.3568833 2.4566591 4.4766102
-3.3603683 2.5361934 4.4643426
-3.3454573 2.5348015 4.4660153
-3.1640561 2.5437031 4.4471045
-3.1135478 2.5464935 4.4432921
-2.8781004 2.5394001 4.4552202
-2.830112 2.5600817 4.455565
-2.7500548 2.536552 4.465004
-2.7031496 2.5525908 4.4709406
-2.6266654 2.5563462 4.4749885
-2.562885 2.5496933 4.468842
-2.4795027 2.5388789 4.4759932
-2.4345753 2.5621588 4.473372
-2.3452568 2.5647085 4.4759803
-2.3012362 2.5898592 4.478662
-3.2513945 2.6414604 4.421483
-3.0211339 2.6148009 4.4560709
-3.0033584 2.62903 4.4605484
-2.8769114 2.5950944 4.4537096
-2.7595212 2.6184442 4.4715762
-2.685972 2.6217639 4.4669223
-2.6140263 2.6134529 4.4728932
-2.5474772 2.6211255 4.471252
-2.5023363 2.6175935 4.4651065
-2.4194114 2.5994308 4.4680181
-2.3342457 2.6041889 4.4742517
-2.1428945 2.6184433 4.479157
-2.8932714 -0.011430984 4.4864111
-2.8335891 -0.011414236 4.4866662
-2.7218604 -0.011410624 4.4971571
-2.5546138 -0.013886881 4.516139
-1.6650732 -0.03607817 4.535892
-1.3022327 -0.03616048 4.5390167
-1.2105565 -0.036130264 4.5329976
-1.1682627 -0.036159091 4.5355377
-0.4945772 -0.023799719 4.5194564
-3.0374415 0.051474031 4.4863701
-2.9870148 0.044169359 4.4856958
-2.8993258 0.036380038 4.4880366
-2.8337984 0.04000555 4.4986124
-2.7614968 0.041647833 4.5063181
-2.7068534 0.04407604 4.5073662
-2.6117761 0.045775473 4.5183401
-2.5528262 0.040782783 4.5227318
-2.4847841 0.038676556 4.5290384
-2.4151194 0.033847112 4.5356798
-2.3465221 0.029709173 4.5355449
-2.2881632 0.04416883 4.5446358
-2.2244637 0.023570908 4.5470123
-2.0282238 0.01326201 4.5495687
-3.0892045 0.10712644 4.4819551
-3.0461214 0.10313455 4.4886518
-2.9694085 0.1084362 4.4874763
-2.9044607 0.10511573 4.4940796
-2.8363907 0.1048594 4.4996643
-2.7616739 0.10950959 4.5103688
-2.6898417 0.10139957 4.5128613
-2.6209204 0.10585936 4.5206809
-2.5540643 0.1061811 4.5295706
-2.4884176 0.10312489 4.5333252
-2.4105005 0.10397845 4.5428305
-2.3341999 0.10645168 4.5393524
-2.2869256 0.10669836 4.5462708
-3.0871253 0.19296983 4.4811206
-3.0504401 0.17423439 4.4829698
-2.9994831 0.16165903 4.48491
-2.8991046 0.16869767 4.497848
-2.838418 0.17193419 4.5029311
-2.7652524 0.17424244 4.5033321
-2.6934171 0.17999466 4.5153522
-2.6467288 0.17122783 4.5234523
-2.5611775 0.15934245 4.5243883
-2.4685993 0.18858907 4.5311418
-2.4159446 0.17389052 4.5373292
-2.3453681 0.17400953 4.5434155
-2.2850721 0.18142408 4.5457578
-2.2276611 0.19880055 4.5490403
-2.8821249 0.24366482 4.4920526
-2.8306415 0.23338936 4.4983497
-2.7690215 0.23519029 4.4998336
-2.7021949 0.24258325 4.5067039
-2.6391358 0.23573089 4.5233707
-2.5538867 0.26451361 4.5285411
-2.4766347 0.24972172 4.5243812
-2.4159863 0.23837987 4.5351262
-2.3503516 0.24257535 4.5416059
-2.2698433 0.24385764 4.542129
-2.2179747 0.24668148 4.5483136
-2.1654191 0.27296525 4.5496364
-3.0457237 0.31895617 4.485992
-2.9974411 0.31660795 4.4887652
-2.8287244 0.31717303 4.4936447
-2.7688901 0.31615925 4.5008011
-2.7058742 0.31288975 4.5046244
-2.6009476 0.32582021 4.5176764
-2.5482252 0.31770006 4.5231371
-2.4859023 0.31519204 4.5234571
-2.415226 0.31600499 4.5339408
-2.3442087 0.3152377 4.5395136
-2.2759826 0.3159126 4.5413218
-2.2151949 0.31941721 4.5452657
-2.1647127 0.28523862 4.5481124
-3.033637 0.38028577 4.4855742
-2.985559 0.38781887 4.4901228
-2.8336821 0.38266948 4.4921331
-2.7673151 0.37791851 4.5099497
-2.6858699 0.39909405 4.5072484
-2.6241908 0.38371333 4.5092402
-2.5537488 0.39145669 4.5157928
-2.4858961 0.38352302 4.5207982
-2.4202492 0.38347235 4.5298486
-2.3460822 0.38055855 4.5333395
-2.2836959 0.38246763 4.538178
-2.2232032 0.37783298 4.5447288
-2.1487718 0.39660203 4.5492425
0.11034797 0.38810441 4.496788
-3.0552974 0.44456992 4.4827132
-2.8428183 0.4422144 4.4936299
-2.7519019 0.46082863 4.5048976
-2.6933539 0.45751148 4.5032196
-2.6276376 0.46130389 4.5109963
-2.5546834 0.45120355 4.5155129
-2.4850199 0.45714036 4.5212326
-2.4124091 0.45399714 4.5271749
-2.344208 0.45380202 4.5333858
-2.2874463 0.45586154 4.5385528
-2.2090805 0.45422494 4.5447931
-2.1401281 0.46761525 4.5482321
-2.8278391 0.52922112 4.4948759
-2.7628419 0.52776915 4.4981451
-2.6998224 0.52699113 4.5035925
-2.6239777 0.53055149 4.5095778
-2.5539279 0.52618545 4.5154757
-2.4852304 0.5274182 4.5203385
-2.4163892 0.52508223 4.5276914
-2.3443339 0.52654535 4.5315809
-2.2719891 0.5260694 4.5388589
-2.2133918 0.52729285 4.5406394
-2.1330616 0.5269261 4.5467253
-2.0909574 0.52848268 4.5496855
-2.8230391 0.60454106 4.4869885
-2.7633958 0.59449208 4.5020466
-2.6960771 0.59425384 4.5035338
-2.6241467 0.60030466 4.5063887
-2.5556383 0.59895509 4.5118103
-2.485064 0.59396935 4.5193486
-2.4157689 0.600694 4.5213103
-2.3454969 0.59374893 4.5311642
-2.2817903 0.59676617 4.5327387
-2.20242 0.59441274 4.5413747
-2.1359496 0.59167242 4.5460668
-2.0843861 0.59895396 4.548583
-1.9931082 0.59620667 4.5487771
-1.9323211 0.59723788 4.5494447
0.11053825 0.59195036 4.5077305
-3.0123737 0.65756249 4.4821296
-3.0000868 0.69475687 4.4829354
-2.8249733 0.6642288 4.4854178
-2.7649243 0.66386348 4.4946394
-2.6985016 0.66066498 4.4983582
-2.6209292 0.66618991 4.5091214
-2.5555608 0.66564316 4.5149465
-2.4857321 0.66126168 4.5174713
-2.4158866 0.66468894 4.5219536
-2.3443708 0.66223496 4.5270224
-2.2748568 0.66846704 4.5310369
-2.2020843 0.65917253 4.5363345
-2.1323524 0.66147429 4.542491
-2.0721719 0.67221552 4.5456524
-2.0202136 0.65825456 4.5469537
-2.9915395 0.73413193 4.4809318
-2.878242 0.7663601 4.4807701
-2.8301795 0.73943079 4.482913
-2.7660575 0.73399782 4.4902453
-2.6977642 0.73412389 4.5005622
-2.6253459 0.73610121 4.5112114
-2.5582125 0.73655075 4.5170155
-2.4870183 0.73426259 4.5131187
-2.4147322 0.73545194 4.5226579
-2.3450694 0.73645186 4.5253329
-2.2753639 0.7375744 4.5332174
-2.2086763 0.73331207 4.537643
-2.1255248 0.73163909 4.5406537
-2.0648065 0.73017138 4.5471745
-2.0109468 0.74002677 4.5480361
0.12292524 0.70316142 4.5124445
-2.9887872 0.80656475 4.4820967
-2.8328264 0.80157185 4.484705
-2.7661359 0.80313027 4.49227
-2.700042 0.80740684 4.4971709
-2.6283596 0.80414063 4.5101628
-2.5544262 0.80985636 4.5123353
-2.4866252 0.80912763 4.5127268
-2.414257 0.80929744 4.5194521
-2.3469882 0.80105799 4.5284214
-2.2737365 0.80678326 4.5303082
-2.2041595 0.8037594 4.5358682
-2.138267 0.80343515 4.5428934
-2.0611386 0.80781794 4.5442572
-2.0188398 0.80887806 4.547049
0.086461797 0.78173071 4.5409694
-2.8744335 0.88295335 4.48418
-2.8279922 0.87901145 4.4840693
-2.75594 0.86404192 4.4972773
-2.6942241 0.87393153 4.497849
-2.6290739 0.87363547 4.5071545
-2.5577271 0.87766838 4.5106239
-2.4859886 0.87160712 4.5108004
-2.4125905 0.87616628 4.5173502
-2.3458226 0.88425553 4.5222974
-2.2771749 0.87714124 4.5259647
-2.2014728 0.86843669 4.5332875
-2.136492 0.87252074 4.5394382
-2.0581195 0.86662996 4.5450659
-2.0017059 0.87909353 4.547184
-2.873328 0.97877753 4.4850721
-2.8257985 0.94416779 4.4839082
-2.7653487 0.94900393 4.4873481
-2.6931665 0.94390416 4.4929338
-2.6228337 0.94260919 4.5018282
-2.550055 0.94506133 4.5015926
-2.4858639 0.93606287 4.5110893
-2.4122949 0.94217527 4.5177808
-2.3453557 0.93931824 4.5208812
-2.2791746 0.94787991 4.5293941
-2.2053475 0.94561917 4.5344782
-2.1306665 0.94364113 4.5389838
-2.0644 0.94685739 4.5445695
-1.9977269 0.94099575 4.5474153
-1.9474506 0.94828683 4.5465508
-2.9964402 1.0074567 4.483644
-2.871417 0.99668121 4.4811459
-2.8246882 1.0097182 4.4821606
-2.7662935 1.0158811 4.4847326
-2.6921608 1.0134636 4.4891086
-2.6234088 1.01527 4.5029864
-2.5530498 1.0174311 4.5003366
-2.4844294 1.0206676 4.5044079
-2.4134536 1.0180374 4.5147176
-2.3428335 1.0096697 4.5201869
-2.2803543 1.0172614 4.5275655
-2.206264 1.0137211 4.5349464
-2.1350243 1.0126309 4.5417671
-2.0650179 1.0157306 4.5451732
-2.0145867 1.0224262 4.5477915
-0.19768789 1.0242283 4.5234537
-2.9960656 1.0570279 4.4801598
-2.8311827 1.0912645 4.4814415
-2.7670717 1.0831801 4.4857097
-2.6968195 1.0821308 4.4937673
-2.6241784 1.0827453 4.4984198
-2.5557799 1.0843267 4.5034413
-2.486711 1.0859357 4.5010419
-2.4165931 1.0840142 4.5099001
-2.3485894 1.0863928 4.5166411
-2.2744856 1.083156 4.5272675
-2.2005517 1.0823959 4.5325923
-2.1309984 1.08391 4.53654
-2.0624335 1.0828185 4.5403562
-2.0014031 1.0843205 4.5453725
-1.9548386 1.0766442 4.5477729
-2.8277891 1.1332381 4.4821873
-2.7684815 1.1548244 4.4832664
-2.6972008 1.1542001 4.4894357
-2.6246238 1.1550784 4.4947343
-2.5544026 1.1548923 4.5005002
-2.4878139 1.1541634 4.5056324
-2.4177001 1.1535873 4.5074859
-2.3481255 1.1520234 4.5144806
-2.2755189 1.1561284 4.5257797
-2.2040358 1.1532915 4.5282717
-2.1334171 1.1547385 4.534708
-2.0683339 1.1563547 4.5401754
-2.0007262 1.1561195 4.5416226
-1.9505702 1.1466297 4.5465059
-2.7576916 1.2199758 4.4817967
-2.6968083 1.2282898 4.4910336
-2.6250062 1.2232274 4.493865
-2.5572133 1.2265425 4.4994822
-2.4866426 1.2235081 4.5044441
-2.4112434 1.2277929 4.5038085
-2.3500843 1.2224021 4.5119252
-2.2782497 1.2269289 4.5232882
-2.2037864 1.2273843 4.5246596
-2.1287584 1.2269855 4.5346503
-2.0650799 1.2263134 4.5400805
-1.9967818 1.2225901 4.5419679
-1.9467069 1.2242004 4.5483346
-1.8814425 1.2255602 4.5494075
-2.7437947 1.2927716 4.4812102
-2.6907995 1.288939 4.4881978
-2.6235542 1.2937884 4.4925523
-2.5564516 1.2929437 4.4946122
-2.481864 1.2885118 4.5025482
-2.4160962 1.2940161 4.5086546
-2.3437319 1.2937357 4.5161152
-2.2766681 1.2916907 4.5196033
-2.2056186 1.2959197 4.5239425
-2.1311462 1.2936552 4.5311642
-2.0657601 1.2941928 4.5374656
-1.9942527 1.2917478 4.5406823
-1.9364102 1.2990937 4.5461888
-2.7630208 1.3548125 4.4804645
-2.6828084 1.3639599 4.4830317
-2.6270497 1.366485 4.4886036
-2.5559392 1.36563 4.4934134
-2.4875662 1.364185 4.4964547
-2.4145112 1.3652159 4.5033493
-2.3456199 1.3611418 4.5138021
-2.2762611 1.3625546 4.5158525
-2.2085862 1.3600899 4.5219889
-2.1307874 1.3662695 4.5326371
-2.0604346 1.3640805 4.5339966
-1.9978963 1.3647864 4.5347037
-1.9306966 1.3691921 4.5443807
-1.8674572 1.3734041 4.549108
-2.6774333 1.4370295 4.4825759
-2.6232579 1.4318713 4.4853201
-2.5553629 1.4347419 4.4931612
-2.4853714 1.4344217 4.499927
-2.4072633 1.4362545 4.5026188
-2.3438306 1.4423059 4.5047455
-2.2802691 1.4395596 4.51051
-2.2087755 1.4388667 4.518652
-2.1308203 1.4345338 4.5260282
-2.0630167 1.4382063 4.533226
-2.0028484 1.4396186 4.5367513
-1.9265968 1.4387805 4.5402069
-1.8523793 1.4381504 4.5488768
-1.7949529 1.4415913 4.5479145
-2.6700041 1.486153 4.481452
-2.6213775 1.50108 4.485043
-2.5555446 1.5036711 4.4915237
-2.4870684 1.5006558 4.4924908
-2.4192181 1.5027788 4.4997721
-2.3437455 1.5061885 4.5060992
-2.2719374 1.5051402 4.5108328
-2.2024865 1.5012628 4.5146165
-2.132498 1.5029271 4.5237932
-2.0646873 1.4953239 4.5347695
-1.9947037 1.50331 4.5363441
-1.9282477 1.5032055 4.539855
-1.8561862 1.5161662 4.5475416
-1.7711927 1.5110402 4.5495453
-1.731887 1.5182452 4.548852
-2.6183877 1.5703434 4.48527
-2.5549197 1.5744005 4.4851203
-2.4871528 1.5788633 4.4917622
-2.4102049 1.5758401 4.4929929
-2.3451047 1.5716242 4.4994526
-2.2806048 1.5725584 4.5030437
-2.2028193 1.57688 4.5139112
-2.1347091 1.578354 4.5242395
-2.0655973 1.5755877 4.5305209
-1.9979782 1.5749322 4.5296216
-1.9251906 1.5758187 4.5337996
-1.8508133 1.5742193 4.5433588
-1.8081517 1.5830802 4.5458064
-1.7331879 1.6030858 4.5459318
-2.6134207 1.6351949 4.4820781
-2.556998 1.6470143 4.4835291
-2.4882364 1.6384059 4.4855552
-2.4143124 1.6448666 4.4943562
-2.3494673 1.6518489 4.4969754
-2.2728238 1.6529521 4.5018139
-2.2048569 1.6554668 4.5084691
-2.132154 1.6471444 4.5229731
-2.0661519 1.6463488 4.5284781
-1.9970326 1.6484184 4.5313978
-1.9262681 1.6518582 4.525475
-1.8484048 1.6501437 4.5419116
-1.7832487 1.6412363 4.5476723
-1.7190984 1.6446594 4.5463042
-2.6026723 1.7123069 4.4814405
-2.5556331 1.7184725 4.482513
-2.4873338 1.7157705 4.4857745
-2.4110367 1.7118417 4.4901977
-2.3503802 1.712202 4.4980693
-2.2719533 1.7164727 4.4978671
-2.2045479 1.7111157 4.5051646
-2.1387141 1.7149881 4.5191922
-2.0644281 1.7144446 4.5237064
-1.9953977 1.709968 4.5253162
-1.9277811 1.7192622 4.5261507
-1.8482065 1.7176607 4.5391173
-1.7822485 1.7153829 4.545289
-1.7152405 1.7157837 4.5445285
-1.6462146 1.7303727 4.5459633
-2.6010823 1.7505195 4.4809599
-2.5451169 1.7879115 4.4834819
-2.4813135 1.7829278 4.4846926
-2.4123371 1.7771304 4.4919496
-2.3429511 1.7832035 4.4910097
-2.276212 1.7888869 4.4938326
-2.2150428 1.7842687 4.5030894
-2.1324184 1.7850138 4.5160217
-2.0592406 1.7862662 4.5196805
-1.9949108 1.7771535 4.5241961
-1.924752 1.7866887 4.5255494
-1.8571122 1.7820187 4.5342135
-1.7843035 1.7811823 4.5416522
-1.7241204 1.7796938 4.5471773
-1.6473368 1.7816494 4.5450692
-2.5484734 1.8564582 4.483079
-2.4893785 1.8487089 4.4814463
-2.409615 1.8480963 4.4875064
-2.344342 1.8540845 4.4931159
-2.2720742 1.8577452 4.5009818
-2.2053039 1.8555812 4.5100508
-2.1339662 1.8539956 4.5128908
-2.0633132 1.8504187 4.5220537
-1.9989763 1.8542006 4.5251932
-1.9201282 1.8572974 4.5292454
-1.8538821 1.8498287 4.5347271
-1.7840664 1.85445 4.5391359
-1.721701 1.8501369 4.546514
-1.6509061 1.8560393 4.5475044
-2.557965 1.9093041 4.4823046
-2.4767854 1.9177197 4.4829297
-2.4135516 1.9257972 4.4849181
-2.3463466 1.9246526 4.4896622
-2.2721162 1.9309183 4.4984241
-2.200845 1.9277972 4.5067272
-2.1380525 1.923157 4.511374
-2.0673683 1.9241707 4.5165854
-1.9924738 1.923308 4.525187
-1.927151 1.9213843 4.5250998
-1.85787 1.927838 4.5331769
-1.778742 1.926504 4.5352592
-1.7185543 1.9376287 4.5426164
-1.657147 1.9217864 4.5463748
-2.4742808 2.0234735 4.4822741
-2.4333751 2.0227144 4.4841757
-2.3415105 1.9966626 4.4914036
-2.2766223 2.0028338 4.4946074
-2.2054462 1.9942551 4.5026574
-2.1345544 1.9951105 4.511025
-2.0637879 1.9988136 4.5153613
-1.9967468 1.9917909 4.5219455
-1.9282759 2.0058987 4.5235004
-1.8492947 1.9987445 4.5248227
-1.7739908 1.9814633 4.5370283
-1.7128047 1.9955535 4.5416956
-1.6596447 1.9955418 4.538734
-2.5301907 2.0712981 4.4817529
-2.4791613 2.0553076 4.482666
-2.4177847 2.0646658 4.4826894
-2.3496733 2.0673726 4.4884944
-2.2794895 2.0597584 4.4933939
-2.217464 2.0634596 4.4955878
-2.135916 2.0654902 4.509521
-2.0680068 2.0635402 4.514082
-2.0051546 2.0589333 4.5150533
-1.9208792 2.0628741 4.5248971
-1.8499213 2.0583985 4.5272803
-1.7866457 2.0728633 4.5306983
-1.7044169 2.052037 4.5455422
-1.6624118 2.061852 4.5405784
2.1610956 2.0502701 4.4805079
2.180922 2.0935032 4.5477953
-2.4100862 2.1379473 4.4823966
-2.3606167 2.123965 4.4825139
-2.2684491 2.1205914 4.4926267
-2.2089832 2.1327012 4.4955988
-2.1311042 2.1321211 4.5060635
-2.0658011 2.1417463 4.5088553
-1.9932194 2.1376157 4.5172935
-1.9337256 2.1313159 4.5241699
-1.8721161 2.1509387 4.5202155
-1.7830762 2.1328959 4.5278111
-1.7136434 2.1409967 4.5318456
-1.6467074 2.1345601 4.5349407
-1.5941094 2.1153469 4.5439878
0.08579839 2.1655154 4.5248284
2.1764905 2.1394019 4.5190516
-2.4882255 2.2002883 4.4811516
-2.4139466 2.182797 4.4830093
-2.3417869 2.2043915 4.4827185
-2.2742939 2.2016735 4.4915009
-2.1996207 2.2000616 4.5048089
-2.1416464 2.198653 4.5061393
-2.059052 2.1965532 4.5145254
-1.9910769 2.2029195 4.5180073
-1.9288497 2.2095408 4.5179768
-1.8536791 2.2103615 4.5179529
-1.782485 2.2020779 4.5250936
-1.705641 2.1988535 4.5382352
-1.6472493 2.205184 4.5394306
0.097788237 2.1953516 4.5093789
0.57900125 2.1941235 4.530406
0.6851747 2.2278059 4.4959283
0.71710134 2.201719 4.5447645
1.7281032 2.1884725 4.5370903
-2.5399022 2.2710481 4.4835935
-2.5087178 2.2888203 4.4814978
-2.4337323 2.2831697 4.4816132
-2.3322191 2.2694299 4.4841781
-2.2757678 2.2735715 4.4861226
-2.1932805 2.2801275 4.4976864
-2.1302614 2.2704072 4.5068479
-2.0683293 2.2812219 4.5112934
-1.9818869 2.2716458 4.5092735
-1.9176217 2.2719719 4.5118999
-1.8608946 2.2696536 4.5206099
-1.7823648 2.267967 4.5367694
-1.7075001 2.2729681 4.541378
-1.6440988 2.2768552 4.5378532
-1.6044198 2.2736623 4.5470099
-2.5251002 2.3174019 4.482336
-2.3324001 2.3236275 4.483604
-2.2744832 2.3456538 4.4876118
-2.199605 2.34395 4.4941287
-2.136014 2.3479109 4.504703
-2.0580869 2.3496244 4.5090933
-1.9930041 2.3397918 4.504251
-1.9219455 2.3442378 4.5132217
-1.8632045 2.3465502 4.511076
-1.7699569 2.3380792 4.5309052
-1.7046059 2.3410268 4.5318966
-1.6565812 2.3360572 4.5357618
-1.6005096 2.3783352 4.5353851
-2.4072759 2.4017775 4.4835401
-2.2850492 2.4201953 4.4866738
-2.1830139 2.4025493 4.4960117
-2.1491423 2.4109983 4.4958725
-2.0612435 2.4005945 4.5145211
-1.9995551 2.4076374 4.5067983
-1.9167852 2.4106064 4.5146675
-1.8596109 2.419688 4.5120926
-1.7080034 2.4269109 4.52004
-1.6690426 2.3908398 4.5294924
-2.6659317 2.5004034 4.4804416
-2.6375291 2.4975479 4.4804544
-2.2819884 2.4780929 4.4901414
-2.1999712 2.4953356 4.4894381
-2.1241052 2.4864933 4.4964747
-2.073246 2.4765851 4.502388
-1.9101316 2.4962769 4.5072522
-1.829656 2.4696774 4.5102859
-1.7888222 2.4650607 4.5197597
-1.7206017 2.4841957 4.5198712
-1.6563587 2.4940407 4.5148883
-1.5864979 2.5070801 4.5371943
-2.682539 2.5800261 4.4824052
-2.5026121 2.5399897 4.48069
-2.4020917 2.5317194 4.4823685
-2.2658541 2.558629 4.4886136
-2.2024605 2.5701745 4.4954042
-2.1323261 2.5571294 4.4920254
-2.0613933 2.5495 4.5012031
-1.9854524 2.5387006 4.5060158
-1.9347063 2.5515864 4.5103025
-1.8871984 2.5739088 4.5041494
-1.704084 2.549175 4.5256934
-1.6557153 2.5592561 4.5256433
-1.592856 2.5521204 4.5400605
-2.2807512 2.5969734 4.4866009
-2.2041595 2.5965514 4.4932055
-2.1492167 2.6001656 4.4866424
-1.8964736 2.5905347 4.508832
-1.8788832 2.5921667 4.5137138
-1.6529576 2.5913825 4.5337687
-1.9074181 -0.036231045 4.5568981
-1.722188 -0.02698552 4.5653315
-1.4245569 -0.028128356 4.5773392
-1.3778615 -0.036310047 4.5594716
-1.3179504 -0.030136496 4.565259
-1.2199062 -0.017779166 4.579628
-1.1476232 -0.026076861 4.5758157
-1.0998113 -0.017811304 4.5830765
-1.0153828 -0.018531777 4.588295
-0.94627476 -0.013377582 4.5878172
-0.8757838 -0.014743757 4.5988312
-0.79037017 -0.019959524 4.5923333
-0.76743048 -0.011652144 4.6047912
-0.66185123 -0.024041088 4.5682802
-0.60352921 -0.024204917 4.5982709
-0.51663369 -0.024255138 4.6063075
-0.050754927 -0.024276571 4.6061049
-2.2491522 0.038056806 4.5532742
-2.1961598 0.04798042 4.5566702
-2.1301339 0.03951351 4.5562172
-2.0639968 0.043642111 4.5586009
-1.9982789 0.04386941 4.5605631
-1.9317876 0.048762176 4.5664396
-1.8580663 0.043484055 4.5702944
-1.7843267 0.037076112 4.5770397
-1.7147524 0.036340352 4.5804195
-1.6494918 0.03515514 4.5807405
-1.5870515 0.047907833 4.5859356
-1.5014594 0.045135848 4.5952973
-1.4349661 0.037202399 4.5918465
-1.3657343 0.026890723 4.5952039
-1.296772 0.03329172 4.6034026
-1.2236481 0.035318878 4.6086035
-1.1674504 0.037213605 4.6105676
-1.0845747 0.02716442 4.6102633
-1.0143567 0.021890827 4.6120701
-0.953049 0.012534628 4.6086316
-0.86968976 0.0063196267 4.6158743
-0.7946412 0.00091997819 4.6173511
-0.76350987 0.00092044589 4.6190081
0.13821514 0.026099885 4.6035533
0.28826678 0.026000716 4.5870924
-2.255168 0.11028538 4.5540719
-2.2058456 0.11016119 4.5582662
-2.136575 0.11000111 4.5589061
-2.0654621 0.10193137 4.5665078
-1.9945929 0.10622171 4.5714507
-1.9163318 0.10587195 4.5760212
-1.8542283 0.10642925 4.5794306
-1.7893393 0.10996274 4.5825462
-1.7149913 0.11064767 4.5858722
-1.6465898 0.10721952 4.5887346
-1.5704311 0.1064251 4.5961542
-1.502431 0.10321239 4.606091
-1.4388833 0.11240695 4.6065493
-1.3614167 0.10965313 4.6104827
-1.296786 0.10456034 4.6079926
-1.2310553 0.10770229 4.6139989
-1.1772189 0.12358738 4.619164
-1.0833187 0.07644251 4.6188321
-2.2600074 0.16643472 4.5510283
-2.2052712 0.17251861 4.5534596
-2.137326 0.17585194 4.5592031
-2.0645804 0.17882816 4.5606618
-1.9776304 0.18463731 4.5701952
-1.9197778 0.17433454 4.574101
-1.8532506 0.17345589 4.5815449
-1.7923608 0.17515448 4.5814376
-1.7161036 0.17584926 4.5876546
-1.6421584 0.17604034 4.5915284
-1.5732185 0.1758146 4.5958428
-1.5031052 0.17530373 4.6064601
-1.4342408 0.17646724 4.6102753
-1.3643259 0.17653117 4.6103539
-1.3029144 0.17526641 4.6085095
-1.2457415 0.17777698 4.6100149
-1.1544094 0.17709816 4.6198273
0.11211339 0.19449234 4.5669398
-2.2005644 0.2321976 4.5528631
-2.1361327 0.24051061 4.5547996
-2.065208 0.24124342 4.5556335
-1.9840376 0.24034946 4.565289
-1.9244015 0.24030614 4.5699468
-1.8605233 0.24341887 4.5786271
-1.7824255 0.24498473 4.5804219
-1.709257 0.23870462 4.5876446
-1.6434268 0.24579711 4.5928097
-1.5774856 0.24425542 4.5955925
-1.5047458 0.24699831 4.5991836
-1.4337851 0.2459687 4.6008935
-1.3655362 0.24913093 4.6054325
-1.302905 0.25059795 4.6079655
-1.2179114 0.2516132 4.6151452
-1.1564268 0.2477549 4.6178045
0.11204718 0.21309938 4.5643644
-2.1811185 0.32255831 4.550899
-2.1338403 0.31650874 4.5539036
-2.061734 0.32281083 4.5567904
-1.9930962 0.32102785 4.5628524
-1.9259124 0.31723803 4.566844
-1.8699667 0.32229584 4.5682988
-1.7781748 0.32212204 4.5771451
-1.7172202 0.3209984 4.5819693
-1.6470518 0.31802905 4.5873628
-1.5770396 0.3170518 4.5914111
-1.5026824 0.3064349 4.5999265
-1.4336197 0.31607726 4.6032209
-1.3607264 0.31945157 4.6065507
-1.295873 0.3160837 4.6077223
-1.2136399 0.31499538 4.614274
-1.1657693 0.32156378 4.6172228
-1.1079265 0.32801282 4.6181788
-2.1838858 0.3866767 4.5529284
-2.1277432 0.38590881 4.553308
-2.0623515 0.3842912 4.556859
-1.9969841 0.38561559 4.5617399
-1.9307899 0.38457096 4.5628266
-1.8610979 0.38641754 4.5698929
-1.7799038 0.38392952 4.5790024
-1.7171067 0.38826019 4.5798664
-1.6479945 0.38462701 4.5829239
-1.5770744 0.38234746 4.589232
-1.5081244 0.38429749 4.5927563
-1.4181343 0.382249 4.6017389
-1.3654783 0.38317829 4.6019282
-1.3005949 0.38742822 4.6039805
-1.2321392 0.38845199 4.6080871
-1.1636344 0.37534523 4.6162262
-1.0903418 0.38464504 4.6183672
-2.179857 0.42176273 4.5530767
-2.1260054 0.43928152 4.5525675
-2.0618708 0.45297533 4.5536208
-1.994145 0.4511078 4.5563354
-1.9264253 0.45588797 4.5614576
-1.8684679 0.46152326 4.566628
-1.7661072 0.44214305 4.5754914
-1.713086 0.45961133 4.5788836
-1.6462878 0.4551152 4.5825047
-1.5834748 0.44720075 4.5848722
-1.5066178 0.46326208 4.5906196
-1.4309345 0.45505229 4.5952787
-1.3577824 0.44652462 4.6015534
-1.2952849 0.45729846 4.6031785
-1.2274599 0.45578131 4.6086397
-1.1490468 0.45516685 4.6156802
-1.0966386 0.45213479 4.6178365
-1.0202835 0.46661416 4.6194062
-2.1087065 0.53271139 4.5502348
-2.0584369 0.52245867 4.553112
-1.9924601 0.52461338 4.5534773
-1.930622 0.52360606 4.5572734
-1.8467152 0.52388108 4.5675883
-1.7896395 0.52569431 4.5738144
-1.7093806 0.52707219 4.5765705
-1.6432059 0.52446711 4.5831838
-1.5812562 0.52500671 4.5820012
-1.5072747 0.51159602 4.5897741
-1.433426 0.53047085 4.5962381
-1.3629825 0.53174746 4.6019316
-1.3043482 0.53306472 4.6025596
-1.2188441 0.52161753 4.6101661
-1.154386 0.52213281 4.6132402
-1.1110945 0.52227944 4.6135921
-1.0139053 0.53579772 4.6196752
-2.1290302 0.61943811 4.5503521
-2.0583911 0.5925054 4.5520015
-1.9934562 0.59511471 4.5514774
-1.9270282 0.60986495 4.5540161
-1.8526729 0.60222775 4.5644164
-1.7791623 0.59358341 4.5733542
-1.7151176 0.59080219 4.5733542
-1.6505088 0.58580303 4.5770526
-1.5794097 0.58703804 4.5811529
-1.5006633 0.59018469 4.5883856
-1.4309082 0.59965599 4.595067
-1.3653677 0.5953269 4.5999646
-1.298478 0.58852637 4.6036277
-1.22113 0.60425955 4.6033616
-1.1501164 0.60180116 4.6120386
-1.0948365 0.58658814 4.6142154
-1.0323812 0.60896879 4.619143
0.10061153 0.58113664 4.6172419
-2.0594411 0.65150917 4.5510645
-1.9889915 0.6515435 4.5524316
-1.924775 0.66369426 4.5568194
-1.8544484 0.66533589 4.5605249
-1.7822355 0.65722769 4.5700383
-1.7218908 0.66466755 4.5719581
-1.6502206 0.66747051 4.5718694
-1.5826106 0.66646296 4.5743184
-1.5135711 0.67401147 4.5763097
-1.426796 0.64610046 4.589354
-1.3680395 0.65011775 4.5915613
-1.2897156 0.63906252 4.6001716
-1.1974773 0.64928454 4.5999446
-1.1578388 0.64056158 4.6082287
-0.99822348 0.66308069 4.6163983
0.11273582 0.65385556 4.5984755
-2.1044214 0.76793879 4.550035
-2.0768604 0.76495236 4.5514069
-1.9823651 0.73646438 4.5524068
-1.9278876 0.73628688 4.5587091
-1.8549101 0.73616761 4.5617518
-1.7886869 0.73735833 4.5670528
-1.7114167 0.74667871 4.5677347
-1.6437198 0.73648953 4.5682831
-1.5746396 0.7379632 4.5822725
-1.5024222 0.73468268 4.6023588
-1.4366924 0.73830122 4.604012
-1.3670621 0.72092956 4.5923743
-1.2942089 0.73004711 4.6048379
-1.2181665 0.72565061 4.6130943
-1.1608289 0.70494872 4.6036005
-1.0958704 0.70376873 4.6109653
-2.1173625 0.79289329 4.5506454
-2.092267 0.78039342 4.5507293
-1.9865674 0.80611986 4.5542297
-1.9260848 0.80802947 4.5588999
-1.8553762 0.80228674 4.5594397
-1.7766895 0.79588282 4.5695729
-1.7170558 0.80782241 4.5701027
-1.6496803 0.80659956 4.5690727
-1.5543596 0.80565685 4.5922322
-1.4845456 0.78239423 4.6135049
-1.4429078 0.77830088 4.6134281
-1.9811753 0.84857887 4.5533319
-1.9207922 0.87404138 4.5566754
-1.8567612 0.88075811 4.5548849
-1.7819551 0.88008952 4.5624633
-1.7170484 0.87218088 4.5681767
-1.6509024 0.87131453 4.5682268
-1.5618305 0.87172407 4.5884666
-1.5208174 0.89060742 4.6122599
-2.0307312 0.97853065 4.5509224
-2.0122585 0.95692468 4.5518923
-1.9052145 0.9538756 4.5589414
-1.8570433 0.94699419 4.5580611
-1.7828132 0.94725037 4.5611343
-1.7184365 0.94704741 4.5664115
-1.6399812 0.94684792 4.5629845
-1.569332 0.94013262 4.5884805
-2.0390682 1.0074468 4.5504704
-1.989645 1.0176678 4.552587
-1.9235502 1.0180461 4.5551257
-1.8550255 1.0078156 4.5614753
-1.7859242 1.0161632 4.5621357
-1.7172827 1.012954 4.5625148
-1.642361 1.0121665 4.5622873
-1.5665882 1.0140994 4.5845823
-1.5263892 1.0261687 4.6026893
-1.9686311 1.0588614 4.5510101
-1.9219816 1.0787183 4.5553088
-1.8547841 1.0909766 4.5579429
-1.7850366 1.0874534 4.5581932
-1.7234473 1.0819684 4.5598125
-1.6428905 1.085691 4.5638733
-1.5701723 1.0838978 4.5826182
-1.5243602 1.1002868 4.6043363
-0.2011275 1.054593 4.6026225
-1.9181671 1.1471331 4.5576949
-1.8511385 1.151412 4.5588427
-1.7833012 1.1570935 4.561667
-1.7165865 1.1606181 4.5570765
-1.6398863 1.1593616 4.5633669
-1.564724 1.1585329 4.5858145
-1.5136131 1.1332842 4.6148257
-1.9696828 1.2513236 4.5501781
-1.9223475 1.2231556 4.5520401
-1.8403361 1.2149709 4.5572515
-1.7819407 1.2200849 4.5603628
-1.71506 1.2268827 4.5590463
-1.6395092 1.220597 4.5579052
-1.5738498 1.2276615 4.577105
-1.5257345 1.213199 4.6009927
-1.9104757 1.292347 4.5517917
-1.8537282 1.2988122 4.5551796
-1.7831457 1.2991807 4.5584865
-1.711197 1.2987019 4.561316
-1.6475403 1.2899743 4.5596237
-1.5724765 1.3000821 4.5787911
-1.514028 1.3013697 4.6032891
-1.9042162 1.363173 4.5512853
-1.8479224 1.363927 4.5528874
-1.78136 1.3675641 4.5555096
-1.7141055 1.3686262 4.5569968
-1.6440171 1.373643 4.5566096
-1.5619339 1.3601688 4.5816531
-1.5271387 1.3694265 4.6047506
-1.8962402 1.4067256 4.5511961
-1.848889 1.4295632 4.5511522
-1.7794789 1.4344552 4.5528154
-1.7166654 1.4276284 4.5585322
-1.6440061 1.4373025 4.5593929
-1.5728769 1.4336606 4.5721354
-1.5290422 1.4276639 4.6024809
-1.8342706 1.4913554 4.5510373
-1.7856208 1.5048641 4.5517836
-1.7156518 1.516397 4.5527482
-1.6452762 1.5087457 4.559515
-1.5703107 1.5002867 4.5792809
-1.5287437 1.5063294 4.6002336
-1.7724693 1.5711001 4.553761
-1.7170247 1.5715039 4.5537729
-1.6400517 1.5749953 4.5558124
-1.56683 1.573563 4.5768609
-1.5234687 1.5762467 4.5973024
-1.7859193 1.6648602 4.550528
-1.6919806 1.6112882 4.5527568
-1.6472223 1.6476064 4.5536451
-1.570883 1.6441143 4.5689864
-1.5207046 1.6455182 4.5945187
2.8900661 1.6555023 4.5749059
-1.6382176 1.7020712 4.551518
-1.5682955 1.7120956 4.5755315
-1.5237396 1.7153606 4.5971527
-1.6914964 1.7822529 4.5514712
-1.6621572 1.8107514 4.550324
-1.5686847 1.7779105 4.5718026
-1.5324315 1.7719313 4.5952506
-0.76442361 1.7537819 4.6093583
-1.6881307 1.8554358 4.5506186
-1.6332101 1.8272671 4.5506763
-1.5749575 1.8477411 4.5724201
-1.5288217 1.8474175 4.591526
-1.6243924 1.9282402 4.5509658
-1.5723494 1.9293172 4.5656853
-1.7165524 2.0271418 4.5500307
-1.6151936 2.0123837 4.5503597
-1.5696508 1.9971139 4.5687327
-1.5277859 2.009244 4.5957379
-1.5687629 2.0596049 4.5683718
-1.5278146 2.0663593 4.5929432
-1.5621738 2.1300278 4.5709658
-1.5296482 2.1247201 4.5909352
2.1957984 2.1582468 4.5736775
-1.5773617 2.2152915 4.5616765
-1.5047822 2.2190008 4.5866737
-0.94322598 2.2251515 4.6166034
0.087258823 2.2211361 4.6015549
0.53828055 2.2124596 4.5687017
0.6093356 2.204766 4.6048512
0.67642289 2.1994085 4.6063542
2.0836356 2.2102282 4.5832167
2.1731293 2.1860681 4.5791287
-1.5846804 2.2659528 4.5589519
-1.4372504 2.277637 4.5904188
-1.1085408 2.2792847 4.6185265
-1.038698 2.2717166 4.6179557
0.54943514 2.2864606 4.5903945
0.58496982 2.2950149 4.6072788
0.71496409 2.2964053 4.6085982
0.83452785 2.2677529 4.5747333
0.84987468 2.2754803 4.5901432
-1.5758091 2.3505707 4.5594673
-1.5310546 2.3336041 4.580369
0.63724709 2.3127027 4.5909882
-1.566287 2.4240341 4.5668626
-1.566596 2.5183499 4.5533919
-1.5755166 2.5571125 4.5565286
-0.89977056 2.5856454 4.5643525
2.1413991 2.5818379 4.6079521
2.3443856 2.5893154 4.6026535
-1.5879301 2.601084 4.5564742
-0.51861447 -0.01171288 4.6239953
-0.43136123 -0.011746441 4.6359453
-0.3937901 -0.011760304 4.6409326
-0.34309775 -0.01176275 4.6412926
-0.27860847 -0.024362942 4.6237636
-0.023259573 -0.019440608 4.6577215
0.012434386 -0.011841325 4.6704164
0.1141511 -0.011792126 4.6511898
-1.2088082 0.063831925 4.6202946
-1.154632 0.063852631 4.6204238
-1.1088972 0.063877709 4.6210752
-1.0157607 0.056400396 4.6248446
-0.93507558 0.049138233 4.6293259
-0.87331164 0.044425659 4.6277866
-0.80699253 0.040593144 4.632606
-0.72500986 0.030512603 4.6382127
-0.67032528 0.048982371 4.6457787
-0.58884054 0.036832452 4.6513877
-0.52346176 0.032726098 4.6498604
-0.456267 0.032164656 4.6494579
-0.38073236 0.039751969 4.6633687
-0.32210872 0.036998268 4.664876
-0.22829095 0.059816729 4.6810493
-0.14125472 0.058555491 4.6819515
-0.096969724 0.05213587 4.6800871
-0.040493552 0.045346074 4.6834397
0.025277082 0.02656267 4.6820693
0.1144501 0.019187108 4.6640801
0.17835839 0.052026901 4.6667347
0.22293605 0.032979671 4.6630273
-1.158272 0.10552232 4.6222415
-1.0847399 0.10964162 4.6229954
-1.0184711 0.11566766 4.6278372
-0.93972337 0.10780346 4.6354184
-0.87343991 0.1084082 4.6360874
-0.80815154 0.10141301 4.6436462
-0.71222144 0.077166729 4.6537328
-0.6639182 0.092056327 4.6558537
-0.56140172 0.077404641 4.6652169
-0.51446384 0.091475189 4.6667037
-0.47690094 0.11151683 4.668961
-0.38639885 0.097971737 4.678093
-0.29846302 0.088698275 4.6805773
-0.25483766 0.085122705 4.6851878
-0.19909129 0.077835143 4.6868296
-0.10298035 0.077877514 4.6889119
0.10200473 0.11601413 4.6760564
-1.1351521 0.17948021 4.6217232
-1.0885601 0.17137738 4.6245985
-1.0236928 0.16674708 4.6286397
-0.93637311 0.17609487 4.6332746
-0.87590861 0.17803656 4.6372299
-0.78785151 0.1573057 4.6456041
-0.73834306 0.18942568 4.6477094
-0.67286587 0.17771612 4.6522965
-0.59095502 0.18711151 4.6604953
-0.52785766 0.20005555 4.6645699
-0.44720331 0.16683471 4.6696625
-0.38072804 0.16707402 4.6757073
-0.28229219 0.14184625 4.6853285
-0.23831245 0.15950963 4.6865911
-0.19913922 0.18040998 4.6884074
-0.10297939 0.20183849 4.6894712
0.10157634 0.166467 4.6566257
-1.196098 0.22738355 4.6200023
-1.1276166 0.24957022 4.621479
-1.0776109 0.25380543 4.6266499
-1.0211776 0.24415207 4.6270595
-0.93604171 0.23602203 4.6348376
-0.88029557 0.24454466 4.6396031
-0.81376851 0.2448341 4.6406384
-0.73635429 0.24491091 4.6469202
-0.69828886 0.26729739 4.6462817
-0.58890492 0.24260202 4.6571412
-0.5134058 0.23346034 4.663662
-0.42562446 0.26448703 4.6667466
-0.4026545 0.23710035 4.6711345
-0.31238505 0.2376584 4.6812563
-0.24374506 0.25062361 4.6837258
-0.18063729 0.24682687 4.6871352
0.10122424 0.26742265 4.6411643
-1.1217093 0.30317441 4.6232543
-1.087519 0.30015641 4.6243715
-1.0209748 0.31715626 4.6287808
-0.93969864 0.30827537 4.6327367
-0.87520915 0.31937894 4.6332083
-0.80260456 0.31515077 4.6392016
-0.73501676 0.30642131 4.6462636
-0.67344332 0.30401123 4.6498594
-0.5945738 0.30342022 4.6539316
-0.53899586 0.32206616 4.656425
-0.44164822 0.32220507 4.6660261
-0.37282696 0.30304077 4.6711011
-0.34551108 0.2820555 4.6752605
-0.23723894 0.34652084 4.6826677
-0.16236179 0.32574424 4.6856599
-0.12857856 0.29574043 4.6881404
0.10118704 0.33709329 4.6401396
-1.1305838 0.3942869 4.6218085
-1.1084332 0.39739054 4.6208401
-1.000793 0.37518725 4.6288376
-0.95287412 0.3806206 4.628737
-0.90352702 0.41759422 4.6308761
-0.80272579 0.38333386 4.6434741
-0.74978304 0.39052659 4.6431856
-0.64932871 0.40002033 4.6494045
-0.59134811 0.38602036 4.6527119
-0.52597564 0.38513798 4.6580973
-0.46334487 0.37647408 4.6662159
-0.38341001 0.38019159 4.6712685
-0.31533599 0.39975807 4.6757159
-0.25091711 0.39035729 4.682641
-0.1592605 0.38909388 4.6867614
-0.12859379 0.41114753 4.6899915
0.097168602 0.39094087 4.6525035
-1.1271135 0.42877898 4.6207094
-1.0738508 0.44460738 4.6206579
-1.0138167 0.45503873 4.6236067
-0.95032799 0.45954993 4.6258049
-0.89504409 0.45554793 4.6318016
-0.79766625 0.45205805 4.6416178
-0.738563 0.45851234 4.6411304
-0.66382593 0.46194974 4.6492825
-0.60134035 0.44660559 4.655519
-0.52267879 0.44545493 4.6577349
-0.45057806 0.45815894 4.6615443
-0.38302171 0.46505508 4.667654
-0.31551266 0.45475408 4.6746602
-0.24940071 0.4476496 4.6831431
-0.16828762 0.44764388 4.6850638
-0.12856688 0.43669367 4.6893497
0.089766629 0.45518944 4.6634889
-1.0156629 0.52535808 4.6218553
-0.94886881 0.5224151 4.6279125
-0.88810462 0.5324201 4.6323247
-0.79831362 0.53079265 4.6384482
-0.72995949 0.53861487 4.6415515
-0.66166466 0.52683318 4.6497693
-0.59789246 0.51198465 4.6559029
-0.52393764 0.51793939 4.6566668
-0.47149491 0.4973298 4.6610384
-0.38029218 0.50542587 4.6694875
-0.31442076 0.51765978 4.674037
-0.24823864 0.52461225 4.6753197
-0.17619471 0.54744387 4.6793265
-0.054171432 0.52614468 4.6881018
0.063754983 0.50070453 4.6894121
0.092920244 0.5245344 4.6552825
-1.0119237 0.59375393 4.621748
-0.95153916 0.60367507 4.628159
-0.87903839 0.5852685 4.6317778
-0.7973901 0.58718657 4.642571
-0.73868853 0.59521663 4.6421223
-0.66131681 0.59888488 4.6479278
-0.60437161 0.59482634 4.6528482
-0.53769988 0.58997226 4.6579118
-0.4532944 0.59768456 4.6613312
-0.39250934 0.60096061 4.6647086
-0.30870324 0.6110186 4.6707301
-0.24894442 0.58729619 4.6748166
-0.17448515 0.58583695 4.679121
-0.10274614 0.59030885 4.6838722
-0.021700023 0.60713273 4.6883659
0.012465388 0.57718968 4.6873436
0.08896976 0.60479623 4.6706805
-1.0078609 0.63034356 4.6218724
-0.85262704 0.66561234 4.6310382
-0.79825199 0.64553976 4.6365647
-0.75910997 0.65820581 4.6362853
-0.66761488 0.65523612 4.643281
-0.5715012 0.66064143 4.6500106
-0.54142153 0.68132889 4.6505027
-0.46092474 0.67311066 4.6570792
-0.41347218 0.69976246 4.6556578
0.093645774 0.66197622 4.6663733
-1.2450961 0.74241614 4.6205335
-1.1426522 0.73964322 4.6291585
-1.0895571 0.72255063 4.6307635
-1.0200809 0.72011548 4.6338568
-0.94169331 0.73027378 4.6434641
-0.87296271 0.73376524 4.6525774
-0.79575557 0.7332769 4.6540184
-0.73454887 0.74044174 4.661181
-0.66205043 0.73868346 4.6648622
-0.59490961 0.74369073 4.6710453
-0.52202368 0.7439636 4.6731882
-0.45270443 0.74256414 4.6777563
-0.38647419 0.73401302 4.68045
-0.33091778 0.7355566 4.6841459
-0.23063493 0.71707034 4.6843672
-0.16846947 0.71513522 4.6832504
-0.11805256 0.71201742 4.6840582
-0.032311864 0.704045 4.6817851
0.033774421 0.70434636 4.683795
0.089182079 0.72328234 4.6827545
-1.1230934 0.77010947 4.6338539
-0.92904139 0.78689659 4.6455984
-0.8743071 0.80676997 4.6529055
-0.81311053 0.79915404 4.6592569
-0.72972357 0.79235363 4.66851
-0.66337943 0.80160135 4.6704268
-0.60194981 0.79668319 4.6715417
-0.52346629 0.78527391 4.6760721
-0.45846933 0.79200435 4.6832857
-0.38664335 0.80364084 4.6880803
-0.33959749 0.78151023 4.6895485
0.07621973 0.80450249 4.6734748
-0.91194153 0.88047945 4.6483512
-0.87262559 0.87558413 4.6522264
-0.82245582 0.87341088 4.6561098
-0.53185523 0.84234983 4.6616087
-0.39040658 0.84463167 4.6866331
-0.91130227 0.96207011 4.6465135
-0.87534869 0.94454509 4.6516314
-0.83104968 0.94122082 4.6598411
-0.35837442 0.96590662 4.6882849
-0.3456676 0.97252423 4.6894116
-0.26468244 0.96406221 4.6889057
-0.910375 1.0368898 4.6431065
-0.88183856 1.0200671 4.6494207
-0.81399786 0.99408972 4.6532903
-0.37121999 0.99162775 4.6897397
-0.29227623 1.0318276 4.688828
-0.26889446 0.99796319 4.6888423
-0.91008973 1.0807722 4.6424198
-0.87388831 1.083647 4.6488032
-0.82000184 1.08068 4.6541843
-0.31838942 1.0866513 4.6879749
-0.26884845 1.0744727 4.6899028
-0.91793758 1.1558238 4.640924
-0.88178468 1.1638243 4.6442003
-0.83553433 1.1582663 4.6497207
-0.35779402 1.1493641 4.6850915
-0.31426468 1.161448 4.6858988
-0.25942713 1.1699256 4.6869903
-0.91946357 1.2290393 4.6445088
-0.87818778 1.2243361 4.6454129
-0.81182063 1.2310917 4.6501999
-0.31126663 1.22615 4.6838665
-0.2510969 1.2294431 4.6803689
-0.92127872 1.2913467 4.6387477
-0.88420242 1.293821 4.6424603
-0.82048321 1.296239 4.6494522
-0.31310555 1.293947 4.6846852
-0.25447184 1.2846864 4.6836414
-0.92120153 1.3702482 4.6394567
-0.8767581 1.3649514 4.6447935
-0.81934881 1.3470501 4.6567206
-0.3567439 1.362282 4.6763744
-0.31367275 1.3609552 4.6824555
-0.25962698 1.3647584 4.6843758
-0.92106408 1.442341 4.6396422
-0.87792051 1.4354131 4.6415606
-0.82981598 1.4333107 4.6487322
-0.36042398 1.4342464 4.6844172
-0.31195974 1.4319634 4.6814795
-0.26587281 1.425662 4.6835008
-0.92106307 1.4822534 4.6400642
-0.88167483 1.5052384 4.6421342
-0.80600375 1.5257061 4.6454401
-0.36211944 1.498323 4.6828675
-0.30460826 1.5067697 4.6822219
-0.25243235 1.5059419 4.6798935
0.6527012 1.5086441 4.6487117
-0.87080908 1.5686396 4.6448421
-0.81733304 1.565536 4.6465964
-0.3570323 1.5416554 4.6838098
-0.30591059 1.555123 4.6812949
-0.25977364 1.5730194 4.6843634
0.66768402 1.5727847 4.6489668
-0.87897235 1.6342885 4.6421084
-0.81864339 1.6241882 4.6464872
-0.35674277 1.6421938 4.6816845
-0.30632389 1.6480975 4.6783419
-0.26469958 1.6443182 4.6794934
0.62970757 1.613133 4.6356182
0.63262582 1.6522404 4.6574783
-0.91906804 1.7369288 4.6312313
-0.88226271 1.7232776 4.6363282
-0.83364773 1.7299039 4.6461654
-0.29809734 1.7094848 4.6809649
-0.26216978 1.7166015 4.6821718
0.66482103 1.691601 4.6617851
-0.91994393 1.7826749 4.6355114
-0.88518596 1.7859684 4.6356554
-0.82424355 1.778252 4.6406136
-0.35617959 1.8110889 4.676208
-0.31588879 1.7843736 4.6752687
-0.2735638 1.7856108 4.6757059
0.62669277 1.7800344 4.6615877
0.69543636 1.7775412 4.6552048
2.857527 1.7588636 4.6516824
-0.92007607 1.8395805 4.63589
-0.88424736 1.8554581 4.638555
-0.82865441 1.8590696 4.6533852
-0.3566896 1.8497225 4.6831288
-0.31424335 1.8563052 4.6797876
-0.26736453 1.8566 4.6790075
0.64855182 1.8421035 4.6587496
-0.92357427 1.9323113 4.6398263
-0.8724798 1.9279587 4.6451797
-0.82975334 1.9185096 4.6591578
-0.36036065 1.9483906 4.6758885
-0.31410274 1.9351019 4.6770511
-0.26437861 1.9087868 4.6825781
0.62400913 1.9334909 4.6651359
0.68015879 1.9533452 4.636797
-0.88013768 1.9995828 4.6451459
-0.30825064 1.9964713 4.6793075
-0.26741949 1.9713718 4.6801915
0.52851468 2.0007935 4.6892357
0.61502039 2.0004478 4.6754413
0.68049163 1.9732137 4.6388936
-0.9211663 2.0750232 4.6377134
-0.89436024 2.058428 4.6395721
-0.3590008 2.062973 4.6797204
-0.32544872 2.0569108 4.6780281
-0.26495677 2.0533462 4.6812229
0.54131979 2.0456092 4.689343
0.58320552 2.0456905 4.6845002
-0.91938603 2.1528065 4.626368
-0.86703527 2.1403761 4.635325
-0.82807207 2.1546044 4.6452212
-0.35680571 2.1005852 4.6838908
-0.32927561 2.1386864 4.6739306
0.55306149 2.1436331 4.6792593
0.60059232 2.137872 4.6603656
0.68894815 2.1235149 4.6596451
0.70032656 2.140219 4.6849489
-0.93550754 2.216604 4.625659
-0.8777355 2.2022843 4.6315165
-0.71488869 2.2384357 4.6474886
-0.66854465 2.229831 4.6514363
-0.62124401 2.2174566 4.658227
-0.49678668 2.2148547 4.6807303
-0.46406689 2.2295947 4.6713028
-0.35644916 2.2128985 4.6772251
-0.31245667 2.2111497 4.6778312
0.075745508 2.2318561 4.6637273
0.54900861 2.1973045 4.6736689
0.5846498 2.1994264 4.6575017
0.69375449 2.2210493 4.6381812
0.72554868 2.2335372 4.6641335
1.7262471 2.2253408 4.6719632
1.7800379 2.2254372 4.6405592
2.1893682 2.2283185 4.6705089
-0.94801968 2.2758667 4.6257005
-0.87856996 2.2919364 4.634201
-0.65590394 2.2652628 4.6504297
-0.57075125 2.2688878 4.6586633
-0.55823886 2.2695522 4.6601329
-0.3662557 2.2691207 4.6710305
-0.31535524 2.2654803 4.6796899
-0.24948715 2.2803719 4.6802573
0.063378841 2.2684739 4.6864371
0.075857095 2.26054 4.6700001
0.75936669 2.2410793 4.652494
0.80960315 2.2448297 4.6867113
0.87662804 2.2495606 4.6685967
0.94318736 2.2731144 4.6495457
0.996795 2.2798934 4.6623287
1.2342139 2.2526879 4.6674151
1.2953153 2.25934 4.6794577
1.3434188 2.3053236 4.6643677
1.6722802 2.2557521 4.6834021
1.6892664 2.2442575 4.6580443
1.9924395 2.2426376 4.6616297
-0.87307674 2.3187513 4.6425166
-0.30080074 2.347578 4.6785874
-0.26797488 2.3321161 4.6840711
0.54273516 2.3631229 4.6751633
0.59728986 2.3607647 4.6813817
0.64610445 2.3670964 4.6541276
0.73646748 2.3562298 4.6635904
0.79804093 2.3189726 4.652884
0.86039901 2.3334486 4.6810656
1.7848457 2.3373561 4.6796713
-0.28914887 2.3910069 4.6807218
0.53617465 2.4205422 4.6735764
0.58966267 2.4103637 4.6822004
0.65094423 2.4087656 4.6670389
0.75413907 2.3964486 4.6528053
0.78873968 2.4052768 4.6694407
-0.29917327 2.5049064 4.6658006
0.5393877 2.4817221 4.6773963
0.59511751 2.4910798 4.6825743
0.67189282 2.478754 4.6741195
0.70633817 2.4956353 4.6681423
0.79166663 2.4834759 4.6437736
-0.28831577 2.530477 4.6744013
-0.26851636 2.5346794 4.684762
0.57926393 2.5675509 4.68541
0.72855061 2.5648582 4.6698394
0.8207525 2.5625412 4.6675968
0.86208957 2.5700352 4.6884313
2.0795405 2.5835204 4.6537461
2.1888516 2.5840802 4.6547313
2.245038 2.5826573 4.6580014
2.3269475 2.5871429 4.6551838
-0.34224167 2.6209879 4.637867
0.088543095 2.6155634 4.6531048
0.52277845 2.6281497 4.6719427
0.57086092 2.6171067 4.6831603
0.75101054 2.6040568 4.6602435
0.82926816 2.6071329 4.6440291
0.86599976 2.6198137 4.6579518
0.92608744 2.6552312 4.6793981
2.0099969 2.6356771 4.6637211
2.1545911 2.5961304 4.6686821
2.3479104 2.5959458 4.6691451
2.3915713 2.6008646 4.6721354
2.4736171 2.5971491 4.6242676
1.8413132 2.6974087 4.6834931
2.0114892 2.6764719 4.6613898
-0.018316459 0.062525362 4.6913748
0.042464562 0.057996497 4.6938467
0.076684274 0.039435327 4.6921568
0.21783839 0.052251562 4.6913619
-0.14582749 0.086477518 4.6917996
-0.10945407 0.087543882 4.6915212
-0.033754539 0.10286362 4.6973081
0.031095432 0.085230984 4.7012568
0.083207972 0.12301588 4.6987839
-0.17999847 0.20616268 4.6909857
-0.10301121 0.19334814 4.6908436
-0.03959823 0.17146771 4.6964283
0.056622602 0.19014408 4.7021265
0.082490228 0.17796725 4.6985192
-0.16286255 0.22750337 4.6902843
-0.077387162 0.23195675 4.693594
-0.035676964 0.233748 4.6972804
0.03310965 0.23757024 4.7031927
0.078943945 0.24085332 4.7002988
-0.096598037 0.30667406 4.6919765
-0.032439396 0.30900699 4.6949453
0.028208507 0.30634317 4.6977835
0.08154846 0.32034665 4.6967478
-0.099573918 0.39596519 4.6920691
-0.027302235 0.40647379 4.6949415
0.043701313 0.38442367 4.6985335
0.080313787 0.38024521 4.692266
-0.11580054 0.43049324 4.6914749
-0.017993804 0.44358736 4.6943731
0.057374917 0.4817363 4.6915941
0.076634638 0.42414594 4.6919789
-0.051640701 0.52006525 4.6909399
-0.0099615073 0.60641891 4.6910858
0.016748721 0.59470099 4.6911011
-0.30393633 0.75171292 4.6930737
-0.24501106 0.7456103 4.6979332
-0.17399418 0.74579823 4.6997318
-0.10082407 0.74249214 4.7022815
-0.035410892 0.74148917 4.7098703
0.040586971 0.74429274 4.7183566
0.076881327 0.73859978 4.7125463
-0.42275846 0.79420936 4.6900859
-0.35889497 0.82011372 4.6917853
-0.31151581 0.80858248 4.6959133
-0.24802436 0.8008433 4.6987143
-0.20559755 0.79593486 4.6984558
-0.026083443 0.77674359 4.7143707
0.033161357 0.77637112 4.7188106
-0.36743137 0.85638493 4.6926742
-0.31323463 0.87293661 4.6965199
-0.25587195 0.87054276 4.6971221
-0.31100088 0.94363421 4.6945281
-0.25649619 0.93332773 4.6943216
-0.36073995 1.0134329 4.6924567
-0.32779086 1.0153873 4.6923409
-0.25626433 1.0255889 4.6923547
-0.30982971 1.0806664 4.691318
-0.25619137 1.0924484 4.6926265
0.54999787 1.5233053 4.7063842
0.56863534 1.5169333 4.7092967
0.7213726 1.5142831 4.7190108
0.80484754 1.5077426 4.7311697
0.87339538 1.5257293 4.7424269
0.93625057 1.5194844 4.7481494
0.98630017 1.5189916 4.7514825
1.7437427 1.5199316 4.7149777
2.6853871 1.5256764 4.7378359
0.53716052 1.564764 4.7066288
0.59694701 1.5765915 4.702909
0.73677939 1.5600799 4.7225013
0.80153352 1.5729377 4.7310381
0.87422109 1.5782008 4.7436104
0.93920195 1.575205 4.7458863
0.98669612 1.5726268 4.7510586
1.7918446 1.5684119 4.704267
2.5176308 1.5984538 4.7545404
0.53226185 1.6577045 4.7024136
0.58507615 1.6393667 4.6987357
0.73887485 1.6494334 4.7299986
0.80506939 1.6449772 4.7380872
0.87411326 1.6357098 4.7422857
0.94130147 1.6511436 4.7503424
0.9925437 1.6478491 4.7554364
3.0302451 1.6736445 4.7315035
0.54958683 1.6947494 4.7052517
0.59100384 1.70605 4.70436
0.74126637 1.7078555 4.7300024
0.79650652 1.7200682 4.733119
0.87695843 1.7264977 4.7338328
0.93618441 1.7185094 4.7439876
0.98756748 1.7132475 4.7558365
1.7976013 1.7082369 4.7156854
2.501143 1.7284833 4.7271843
2.5358818 1.7258809 4.7547426
3.0141573 1.7040619 4.7024088
0.54117513 1.790612 4.6964412
0.58539021 1.7904042 4.7027364
0.73585427 1.7820467 4.7217302
0.79952615 1.7820836 4.7353349
0.87746555 1.7783333 4.7389588
0.94136298 1.7794862 4.7422376
0.99815017 1.7812122 4.7543726
1.7987809 1.7864488 4.7161126
2.4914231 1.7651775 4.7189183
2.521251 1.7509346 4.7512836
0.54326236 1.8551843 4.7007647
0.57804179 1.8417834 4.7036772
0.74114949 1.8464186 4.7233367
0.80311137 1.8564097 4.7307034
0.87469387 1.8582656 4.7353754
0.94486105 1.8647343 4.7408772
0.99182481 1.8617754 4.7516747
1.7991217 1.8767018 4.7133408
2.4867496 1.8595846 4.7291665
2.527869 1.8209997 4.7587662
0.54410213 1.9290386 4.6957707
0.56736392 1.9328389 4.6946549
0.72156197 1.9130522 4.7182631
0.81720126 1.9254242 4.7321634
0.88917756 1.9335608 4.7348657
0.94696867 1.9296646 4.7397838
0.99675643 1.9268576 4.7505856
1.748384 1.9237115 4.7513981
1.8033483 1.9261947 4.7223043
2.5009644 1.8990272 4.75387
0.53344339 1.9985602 4.6925507
0.5718233 1.9779463 4.6917744
0.74182034 1.9876471 4.7128067
0.80530143 1.9923954 4.7258205
0.87308949 1.9920831 4.7332754
0.95004123 1.9917607 4.7365031
1.0021853 1.9995872 4.7450662
1.8082623 1.989539 4.7322898
2.6871624 2.0288823 4.7487392
0.51612592 2.0404124 4.6921792
0.7296353 2.0610242 4.7110758
0.80170995 2.0574 4.7281661
0.87589014 2.0611365 4.7296557
0.94617718 2.0559425 4.7361107
1.004362 2.0654302 4.7502632
1.7955966 2.0581646 4.7388225
2.6741884 2.0321913 4.724318
0.73742574 2.1481287 4.7071795
0.81549048 2.141659 4.7156038
0.86980349 2.1344254 4.7304211
0.93772459 2.1209652 4.7377105
0.9995411 2.1470304 4.7485209
1.7495629 2.1647012 4.7416062
1.7782481 2.1239529 4.7503901
2.8996797 2.1403844 4.7152958
0.71668231 2.1958649 4.7075596
0.81775498 2.201818 4.7170811
0.88128853 2.1987424 4.7326493
0.93946266 2.2009909 4.7442636
0.99896896 2.1991036 4.7535152
