ply
format ascii 1.0
comment PCL generated
element vertex 1523
property float x
property float y
property float z
element face 0
element camera 0
property float view_px
property float view_py
property float view_pz
property float x_axisx
property float x_axisy
property float x_axisz
property float y_axisx
property float y_axisy
property float y_axisz
property float z_axisx
property float z_axisy
property float z_axisz
property float focal
property float scalex
property float scaley
property float centerx
property float centery
property int viewportx
property int viewporty
property float k1
property float k2
end_header
-2.3633246 0.56826252 4.5282273
-2.3325231 0.55593967 4.5299778
-2.3197718 0.55584103 4.5297427
-2.3071332 0.55576843 4.5297017
-2.4924846 0.58050245 4.519568
-2.4818983 0.58091223 4.5236053
-2.4692755 0.58084714 4.5239153
-2.4561779 0.58066922 4.523324
-2.4430842 0.58049035 4.5227032
-2.4224524 0.57998151 4.5198517
-2.4046371 0.58014393 4.5221996
-2.3761935 0.58072615 4.5284419
-2.3578134 0.58075857 4.5296574
-2.4979072 0.59265792 4.5175872
-2.4814348 0.59314215 4.522562
-2.4689302 0.59310347 4.5230894
-2.4550037 0.59272116 4.5209684
-2.4419127 0.5925377 4.5203457
-2.4217539 0.5921315 4.5183678
-2.4032404 0.59212416 4.5193963
-2.3702157 0.59311086 4.528976
-2.3580337 0.59315139 4.5299253
-2.4986942 0.60517639 4.5188017
-2.4809594 0.6053645 4.5214925
-2.4683356 0.60529524 4.5218005
-2.4547648 0.60499191 4.5203347
-2.4403763 0.60448295 4.5173073
-2.4218054 0.60446161 4.51828
-2.404743 0.60481924 4.5220513
-2.392813 0.60492039 4.5235105
-2.3827229 0.60549027 4.5284624
-2.3072021 0.60510814 4.529284
-2.5422435 0.62993169 4.5158157
-2.529381 0.62980139 4.5158253
-2.5108871 0.61747307 4.5174437
-2.4948926 0.61809486 4.5233245
-2.4816651 0.61787617 4.5225739
-2.4674921 0.61741877 4.52005
-2.4542651 0.62335932 4.5191131
-2.4405234 0.62299836 4.5172873
-2.4223263 0.62307447 4.5189719
-2.405401 0.6234777 4.5230169
-2.3935804 0.62361193 4.5246964
-2.3824644 0.61776185 4.5277967
-2.331845 0.62976176 4.5277562
-2.2905936 0.62561607 4.5294518
-2.5445318 0.64284378 4.5196481
-2.5302052 0.64234203 4.5170641
-2.5110176 0.63858032 4.5211601
-2.469173 0.63634586 4.5228209
-2.4544516 0.64189523 4.5191474
-2.4408832 0.64157027 4.5176516
-2.4231176 0.64176208 4.5201569
-2.4054542 0.64198369 4.5228333
-2.3939769 0.64221358 4.5251703
-2.3831818 0.64262968 4.5288029
-2.3618495 0.6383118 4.5285239
-2.3453736 0.63625062 4.5293674
-2.3323526 0.64223218 4.5285792
-2.3192492 0.64202046 4.5276814
-2.28107 0.64168996 4.5270286
-2.5432839 0.65486741 4.5171814
-2.5292022 0.65441793 4.515029
-2.4548759 0.65433514 4.5197167
-2.4428339 0.65441352 4.5210595
-2.4233561 0.65415072 4.5204
-2.4050477 0.65420163 4.5218716
-2.3927591 0.65421355 4.5226722
-2.3816202 0.65454143 4.5256424
-2.3689754 0.65445673 4.5257349
-2.3313754 0.65429121 4.5265088
-2.3182738 0.65407455 4.525609
-2.2883229 0.65432417 4.5287628
-2.5686257 0.6673761 4.5160909
-2.5442114 0.66744977 4.5185804
-2.5298822 0.66692781 4.5159984
-2.5173738 0.66688293 4.5166311
-2.4910383 0.66643929 4.5154257
-2.4542253 0.66648746 4.5182977
-2.4370389 0.66684651 4.5219345
-2.4180827 0.66672206 4.5222454
-2.3940771 0.66690743 4.5249724
-2.3630338 0.66685188 4.5263147
-2.3440583 0.66671872 4.5263853
-2.3300469 0.6662395 4.5237503
-2.3174005 0.66614747 4.5237312
-2.3068876 0.66667122 4.5278826
-2.6073472 0.68015623 4.515563
-2.5942152 0.67995274 4.5152912
-2.5558183 0.67959601 4.5160213
-2.54282 0.67942148 4.5158463
-2.45439 0.6788587 4.5183773
-2.4365542 0.67904323 4.520813
-2.4176545 0.67893177 4.5212326
-2.3927214 0.67885619 4.5222034
-2.3622012 0.67894512 4.5245275
-2.3445361 0.67918706 4.5271268
-2.3312006 0.67889655 4.5258164
-2.3182085 0.67870349 4.5251374
-2.3066783 0.67893863 4.5273013
-2.2886369 0.67907476 4.5290632
-2.5825522 0.70483345 4.516993
-2.5690265 0.69834065 4.5161161
-2.5574217 0.69854307 4.5184531
-2.543685 0.69816482 4.5169868
-2.4530079 0.69079602 4.5155983
-2.4385669 0.69958186 4.5202293
-2.4225998 0.69561148 4.5222497
-2.4053359 0.69742835 4.5216899
-2.3934424 0.69755608 4.5232573
-2.3798754 0.70335728 4.5215254
-2.3628483 0.69762772 4.5254741
-2.3459692 0.69811219 4.5296154
-2.3312082 0.69739079 4.5255547
-2.3201859 0.69778329 4.5287352
-2.3078051 0.69160432 4.5293431
-2.6043985 0.71341103 4.517179
-2.5568087 0.71689337 4.5169487
-2.5444052 0.71687841 4.5178576
-2.4539897 0.71572149 4.5169334
-2.4315195 0.71636671 4.5226426
-2.4211996 0.71696514 4.5272117
-2.3951809 0.71657151 4.526227
-2.3803329 0.71581858 4.5221848
-2.3562849 0.7160055 4.5247521
-2.3314199 0.7159456 4.5256801
-2.3205612 0.71640098 4.5291901
-2.282769 0.71616024 4.5294294
-2.5958884 0.72980857 4.5170345
-2.5828664 0.72962153 4.5169535
-2.5568316 0.72924465 4.5167022
-2.5443039 0.72919387 4.517395
-2.4667516 0.72817349 4.5166287
-2.4534011 0.72787136 4.5156016
-2.4309297 0.72852552 4.521307
-2.4210749 0.72927356 4.5267467
-2.3938971 0.7285198 4.5235744
-2.3306026 0.72801864 4.5238934
-2.3072991 0.72844666 4.5277991
-2.5959084 0.74216872 4.5167594
-2.5847239 0.74250627 4.5199037
-2.5710838 0.7421385 4.5187206
-2.5580609 0.74194598 4.5185838
-2.5444343 0.74157566 4.5173378
-2.4540994 0.74040365 4.5166368
-2.4375336 0.74099052 4.5214667
-2.4205899 0.74147016 4.5256009
-2.4058363 0.74072963 4.5218449
-2.393295 0.74066615 4.5222082
-2.3791416 0.74010038 4.5194788
-2.3540654 0.73996675 4.5200639
-2.3314717 0.74061877 4.5253816
-2.3200438 0.74090815 4.5277882
-2.3069217 0.74065667 4.5268645
-2.6031709 0.75483751 4.5177708
-2.5848515 0.75490367 4.5198159
-2.5704763 0.75431401 4.5173445
-2.5576956 0.75418901 4.5176373
-2.4547858 0.75293916 4.5176449
-2.4383862 0.75358903 4.5228024
-2.4203267 0.75373107 4.5248656
-2.4055722 0.75297743 4.5211096
-2.3919668 0.75873798 4.5193429
-2.3798862 0.75881749 4.5205526
-2.362123 0.75288898 4.5231371
-2.3436389 0.75289381 4.5241928
-2.332103 0.7531513 4.5264025
-2.3198812 0.75318879 4.5272679
-2.601979 0.77157384 4.5190315
-2.5860023 0.77378774 4.5213509
-2.5702233 0.7665897 4.5165868
-2.5581603 0.77285314 4.5179958
-2.5305526 0.76580137 4.5150042
-2.5113933 0.76560438 4.515296
-2.4541638 0.7650739 4.5162349
-2.4428983 0.77157116 4.5189219
-2.4196191 0.77201724 4.5231638
-2.4065454 0.77178329 4.5225754
-2.3918879 0.77719724 4.5188313
-2.380378 0.77746427 4.5211339
-2.3630381 0.77168161 4.5245543
-2.3457637 0.77208543 4.5279737
-2.3338535 0.76605779 4.5295939
-2.3206079 0.7657612 4.528482
-2.3018284 0.77184039 4.5287824
-2.5969834 0.79191434 4.5173249
-2.5852916 0.79212046 4.5196109
-2.5051703 0.79025567 4.515089
-2.4544199 0.78980702 4.5161614
-2.4371295 0.79019898 4.519681
-2.4059889 0.79010183 4.5211487
-2.3917053 0.78945905 4.5182366
-2.3808823 0.789958 4.5218506
-2.3641033 0.79053432 4.5262461
-2.320565 0.79041946 4.5279684
-2.301199 0.7901268 4.5272336
-2.2835033 0.79040682 4.5297503
-2.4543543 0.80211234 4.5157585
-2.442163 0.80215853 4.5168805
-2.4236932 0.80216813 4.5181847
-2.4067237 0.80267805 4.5222726
-2.3765259 0.80289972 4.5254307
-2.3462989 0.80311537 4.5284367
-2.2889693 0.80249619 4.5278463
-2.4546313 0.81453055 4.5159817
-2.4363358 0.81459892 4.5176516
-2.416986 0.81431293 4.5173101
-2.4072154 0.81517959 4.5229316
-2.3712363 0.81554079 4.5272331
-2.3466525 0.81558001 4.5288811
-2.2952063 0.81485224 4.5274591
-2.2825136 0.81472558 4.5273643
-2.4546616 0.82686853 4.5157428
-2.4361634 0.83303368 4.516901
-2.417768 0.83306897 4.5183554
-2.4070621 0.83363301 4.5222321
-2.3921313 0.83273351 4.5181265
-2.3810658 0.83933878 4.5211687
-2.3696434 0.82732761 4.5239305
-2.3200178 0.83339947 4.5260954
-2.2954199 0.82726192 4.5276594
-2.2858677 0.83499914 4.5252891
-2.2698903 0.83928078 4.5269537
-2.2571492 0.83296508 4.5268269
-2.4417818 0.8513338 4.515007
-2.4232373 0.85131693 4.516201
-2.4059615 0.85174835 4.5197377
-2.3915508 0.85101032 4.516614
-2.380826 0.851583 4.5204396
-2.3326826 0.85201877 4.5256824
-2.3079591 0.85200322 4.5269465
-2.2878518 0.85140884 4.5247402
-2.269413 0.85143089 4.5257783
-2.2557232 0.85091865 4.5236397
-2.4300342 0.86386609 4.5166535
-2.4178185 0.86390829 4.5177226
-2.404443 0.86353421 4.5165896
-2.3919945 0.86349088 4.5171695
-2.3690324 0.86410886 4.5219612
-2.3325369 0.86429983 4.5251441
-2.3016801 0.86429703 4.5268121
-2.2818477 0.86379635 4.5251417
-2.2677119 0.86311001 4.5221524
-2.256773 0.86363947 4.5255275
-2.2448335 0.86378992 4.5268946
-2.4363556 0.87624991 4.5161953
-2.4174483 0.87610275 4.516727
-2.404187 0.87576425 4.515811
-2.3921967 0.87588769 4.5172615
-2.3617377 0.87602329 4.5199022
-2.3319297 0.87640601 4.5237026
-2.3076479 0.87655455 4.5258398
-2.2885342 0.87632239 4.5256138
-2.2700815 0.87634206 4.5266542
-2.2572622 0.87615424 4.5262833
-2.2448804 0.87613511 4.5267677
-2.2205381 0.87626272 4.5285425
-2.208359 0.8763243 4.5293927
-2.4305675 0.88871723 4.5170236
-2.4175315 0.8884601 4.5165739
-2.405654 0.88862813 4.5182691
-2.393424 0.88866729 4.5192871
-2.3817635 0.88891912 4.521369
-2.3575058 0.88907766 4.5237141
-2.3420877 0.88791126 4.5185056
-2.331425 0.88854474 4.5224547
-2.3078115 0.88895071 4.5259061
-2.2878585 0.88839066 4.5240326
-2.2699034 0.88860244 4.5260596
-2.2568626 0.88832444 4.5252481
-2.2448075 0.88843358 4.5263939
-2.232419 0.88841116 4.5268507
-2.4556296 0.91352373 4.5152822
-2.4365544 0.90714675 4.5157585
-2.4183891 0.90727323 4.5177026
-2.4052322 0.90696138 4.5170088
-2.3942647 0.90747976 4.5204191
-2.3808768 0.9070822 4.5192337
-2.3618007 0.90686166 4.5193038
-2.3449321 0.90749276 4.5235815
-2.3321118 0.90730405 4.5233765
-2.3206935 0.90766376 4.5258813
-2.3024015 0.90775239 4.5273442
-2.283215 0.90748489 4.526998
-2.2716534 0.90779674 4.5291872
-2.2583265 0.90740108 4.5278292
-2.2459249 0.90120888 4.528419
-2.2258682 0.90674603 4.5260096
-2.2142265 0.90702879 4.5279751
-2.4565129 0.92618966 4.516562
-2.4378729 0.92614084 4.5176954
-2.4184132 0.92577922 4.5172577
-2.3940487 0.92589897 4.5195389
-2.3800848 0.92526722 4.5172653
-2.3620596 0.92545152 4.519351
-2.3443608 0.9257676 4.5220428
-2.331651 0.9256196 4.5220556
-2.3218546 0.9266327 4.5277333
-2.3016543 0.92595857 4.5254717
-2.4514999 0.93897057 4.5188103
-2.4309247 0.93817824 4.5163608
-2.4179904 0.93794698 4.5161304
-2.3790855 0.93719846 4.5150485
-2.3624258 0.93792439 4.5197463
-2.3460758 0.93878549 4.5250592
-2.3320053 0.93809181 4.5224524
-2.3202987 0.93834668 4.5244074
-2.2964137 0.93867177 4.5273705
-2.2849023 0.93901432 4.5296936
-2.4694297 0.95108509 4.5159397
-2.4377205 0.95075452 4.516715
-2.4182525 0.95037961 4.5162787
-2.4058931 0.95037043 4.5171061
-2.3924963 0.94994932 4.5159502
-2.3797925 0.94980037 4.5160699
-2.3611889 0.9497568 4.517065
-2.3447297 0.95058024 4.5221529
-2.3307745 0.94992167 4.519763
-2.3197415 0.95045322 4.5230269
-2.2970755 0.951285 4.528398
-2.419894 0.96336395 4.5190001
-2.4061403 0.96280009 4.5172272
-2.3933139 0.96260351 4.5171595
-2.3552949 0.96218914 4.5176568
-2.3439381 0.96258873 4.5203128
-2.3182149 0.96831298 4.5195937
-2.3034284 0.9669525 4.5238528
-2.2848771 0.9636907 4.529089
-2.456655 0.97559476 4.5153599
-2.4203653 0.98206246 4.5193434
-2.406951 0.98162824 4.5182238
-2.3946905 0.9816618 4.5192437
-2.3818545 0.98145854 4.5191507
-2.3634443 0.98766768 4.5204048
-2.3453276 0.98166418 4.5225172
-2.3300591 0.98659354 4.5174394
-2.2992971 0.9833889 4.5236506
-2.2846282 0.97592789 4.5283089
-2.272835 0.98851109 4.529798
-2.4188495 0.99994993 4.5159535
-2.4080861 1.0006049 4.5198145
-2.3950126 1.0003015 4.5193186
-2.383884 1.0008116 4.5224848
-2.3588676 1.0006775 4.5235295
-2.3459051 1.0004157 4.5231395
-2.3312607 0.99942988 4.5194492
-2.3188684 0.99940425 4.5200887
-2.2955155 0.99997604 4.5241346
-2.4084065 1.0130817 4.5200448
-2.3953283 1.0127733 4.5195503
-2.3817961 1.0122689 4.518158
-2.35747 1.0124201 4.5204988
-2.3320019 1.0120791 4.5205574
-2.320497 1.0124421 4.5229454
-2.3069789 1.0119258 4.5213771
-2.2729414 1.0132486 4.5294185
-2.2602947 1.0131164 4.5294952
-2.4072201 1.0249202 4.5174341
-2.3941433 1.0246061 4.5169373
-2.3209972 1.0249989 4.5235896
-2.3016567 1.0246323 4.5230846
-2.2725403 1.0254135 4.5283127
-2.2606575 1.025625 4.5299239
-0.19768789 1.0242283 4.5234537
-2.3944674 1.0432475 4.5169759
-2.3204825 1.0371073 4.5222454
-2.3028464 1.0436714 4.5249276
-2.284117 1.0374063 4.5257664
-2.3938549 1.0614797 4.5152292
-2.3310516 1.0609723 4.5173144
-2.3200934 1.0616008 4.5207863
-2.2952545 1.0615265 4.5219917
-2.2851367 1.0563869 4.527298
-2.3559992 1.0734283 4.5158401
-2.3431423 1.0731882 4.5156646
-2.330622 1.0731009 4.5161133
-2.3201072 1.073941 4.5204525
-2.302583 1.0743995 4.5235434
-2.2840445 1.0743902 4.5246234
-2.2739096 1.075435 4.5297546
-2.33287 1.086472 4.520102
-2.3206692 1.086538 4.5211811
-2.3029683 1.0869209 4.5239458
-2.2855775 1.0874586 4.5273194
-2.2737882 1.0877281 4.5291724
-2.2612269 1.0876292 4.5294695
-2.2476869 1.0870559 4.5277691
-2.2231007 1.0871097 4.5293221
-2.2106402 1.0870546 4.5297303
-2.3572636 1.0986732 4.5174809
-2.3224463 1.0997162 4.5242743
-2.2973444 1.0995255 4.5250545
-2.2853403 1.0996917 4.526494
-2.2732198 1.0998034 4.5276904
-2.2597859 1.0992775 4.526238
-2.2458158 1.0984832 4.5236592
-2.2214541 1.0986388 4.5256419
-2.2104957 1.0993254 4.5291209
-2.3566818 1.1230651 4.5155458
-2.3449392 1.1171823 4.5177617
-2.3348031 1.1182384 4.5228815
-2.3198674 1.1169182 4.5270357
-2.2973213 1.1118584 4.5246391
-2.2861929 1.1124524 4.5278234
-2.2737164 1.1185684 4.5281448
-2.2591321 1.1174649 4.5244007
-2.2446189 1.1163846 4.52073
-2.2272365 1.1169448 4.5240269
-2.2097001 1.1112673 4.5271688
-2.198451 1.124164 4.5297413
-2.3452406 1.1358303 4.5177264
-2.3328049 1.1357845 4.5183973
-2.315155 1.1331004 4.5256214
-2.2988672 1.1311343 4.5271206
-2.2870116 1.1313828 4.5288892
-2.2739749 1.1372225 4.5281091
-2.2599838 1.1364008 4.525569
-2.2451375 1.1351376 4.5212474
-2.227582 1.1356199 4.5242152
-2.2097921 1.1359893 4.5266972
-2.3324301 1.1479356 4.5172548
-2.3209903 1.1483808 4.5198517
-2.3040838 1.1491845 4.5242448
-2.2862737 1.1495447 4.5268512
-2.2739158 1.1495439 4.5276132
-2.2601395 1.1488224 4.5255113
-2.2455063 1.1476548 4.5216293
-2.2272968 1.1478072 4.5232849
-2.1987283 1.148996 4.5296526
-2.3323805 1.1602448 4.516737
-2.298677 1.1619195 4.5257592
-2.2868671 1.1621975 4.5276356
-2.2738473 1.1618601 4.527091
-2.260721 1.1614643 4.5262995
-2.2415767 1.1611446 4.526144
-2.2222176 1.1607082 4.5254955
-2.2103803 1.1609741 4.527215
-2.1861503 1.1612202 4.5294843
-2.3453281 1.1728826 4.5166035
-2.3331037 1.1729418 4.5177083
-2.3103011 1.1738985 4.5230951
-2.2992673 1.1745723 4.526515
-2.2874506 1.1748513 4.5283914
-2.274097 1.1743395 4.5271955
-2.2612922 1.1741073 4.5270591
-2.2468724 1.1791961 4.5234442
-2.2297363 1.1808951 4.5229678
-2.2106071 1.1734356 4.5273232
-2.3326626 1.1912217 4.5161886
-2.3171108 1.1937449 4.5190349
-2.3025055 1.1905903 4.5239487
-2.2873201 1.1933165 4.5275145
-2.2740707 1.1928558 4.5265369
-2.2614779 1.1927311 4.5268364
-2.245806 1.1971372 4.5207052
-2.2269819 1.1969668 4.5211577
-2.2103925 1.1980042 4.5261474
-2.1980085 1.191812 4.5269375
-2.3326495 1.209718 4.5154829
-2.3201885 1.2096552 4.5161271
-2.3040814 1.2109188 4.5221353
-2.286624 1.2114855 4.5254984
-2.274899 1.2118227 4.5275645
-2.2621877 1.2116356 4.5276484
-2.2476401 1.2104574 4.5240021
-2.22735 1.209497 4.5215149
-2.2094195 1.2098129 4.5237718
-2.1985161 1.2106047 4.5274305
-2.1742408 1.2108403 4.5296464
-2.3338909 1.2227033 4.5174246
-2.3204226 1.2221128 4.5161262
-2.3031499 1.2227714 4.5198574
-2.2858565 1.2234275 4.5235419
-2.2610941 1.2233983 4.5250363
-2.2491395 1.2236154 4.5266142
-2.2285113 1.2224674 4.5234814
-2.2093971 1.2221363 4.5233378
-2.1968997 1.2220494 4.5237155
-2.1731565 1.2225769 4.5270185
-2.2867219 1.236244 4.5248146
-2.2611849 1.2357962 4.5247908
-2.2496572 1.2362506 4.5272388
-2.2288048 1.2349701 4.523674
-2.2115998 1.2357029 4.5274606
-2.1971822 1.2345428 4.52391
-2.1850991 1.2346891 4.5251365
-2.1680593 1.2355301 4.5292253
-2.3465915 1.2537463 4.5159731
-2.3219717 1.2476159 4.5182037
-2.3014438 1.2558744 4.5194569
-2.2849941 1.2538254 4.5207071
-2.2718468 1.2533857 4.5199471
-2.2417912 1.2538376 4.5235691
-2.2223608 1.2471572 4.5230746
-2.210814 1.2476072 4.525444
-2.1966887 1.252764 4.5222931
-2.1852336 1.2532752 4.524828
-2.1669014 1.2533802 4.5262337
-2.1485791 1.2596638 4.5274386
-2.3597279 1.2726858 4.5157604
-2.3473537 1.2726742 4.5166807
-2.335376 1.2667053 4.5186005
-2.322221 1.2662666 4.5179577
-2.3027005 1.27189 4.5170951
-2.2847803 1.2722234 4.5195837
-2.260397 1.2662272 4.5221038
-2.2423651 1.2726804 4.5240746
-2.2238894 1.2665378 4.5255556
-2.1996677 1.2729907 4.5278215
-2.184824 1.2715428 4.5233746
-2.167192 1.2720603 4.5262542
-2.1367955 1.2723397 4.5288959
-2.3597069 1.2850217 4.5151911
-2.3478866 1.2853134 4.5171881
-2.3358366 1.2854813 4.5187302
-2.3222313 1.2847908 4.5172267
-2.3028798 1.2843311 4.5169621
-2.2845173 1.2844186 4.5185838
-2.2605932 1.2848558 4.5218077
-2.2425754 1.2851481 4.5240493
-2.2124438 1.2855852 4.5275211
-2.1859078 1.2845159 4.5252085
-2.1675832 1.2846332 4.5266695
-2.1480038 1.2840017 4.5254521
-2.3477411 1.2975827 4.516377
-2.3364646 1.298182 4.5194254
-2.3162146 1.297225 4.5174837
-2.296968 1.2968184 4.5174217
-2.2846825 1.2968537 4.5184231
-2.2721758 1.2967628 4.5189648
-2.2418118 1.2970541 4.5220428
-2.2109873 1.2970835 4.524096
-2.184984 1.2963103 4.5228696
-2.1733978 1.2967615 4.5251589
-2.1374357 1.2974164 4.5294814
-2.3474755 1.3097841 4.5153255
-2.3370838 1.3108844 4.520093
-2.3220286 1.3093668 4.5157962
-2.3090849 1.3090298 4.5155578
-2.2730875 1.3096297 4.5202923
-2.2474053 1.3090599 4.5199986
-2.2286797 1.3089387 4.5207853
-2.2106907 1.3092525 4.5230403
-2.1982663 1.3092071 4.5236387
-2.1682329 1.3097129 4.5271988
-2.1499853 1.309884 4.5288272
-2.3614953 1.3230655 4.5169725
-2.3193223 1.3266326 4.518147
-2.2983766 1.322313 4.5191755
-2.2736225 1.3284622 4.5206051
-2.2419748 1.3218386 4.5214252
-2.2259262 1.3290901 4.5187149
-2.2096465 1.3271406 4.5202093
-2.1976433 1.3273449 4.5216761
-2.1850016 1.3333327 4.5215845
-2.1747642 1.3284502 4.5269322
-2.3378139 1.3421986 4.520133
-2.3156376 1.343352 4.5185876
-2.298533 1.3409266 4.5186906
-2.2867808 1.3474598 4.5205317
-2.2718632 1.345944 4.5163288
-2.2618151 1.3411359 4.5220585
-2.2446024 1.3427519 4.521616
-2.2233517 1.3464706 4.5214791
-2.2095406 1.3455811 4.5192842
-2.1977425 1.3459139 4.5211844
-2.1813338 1.3472178 4.5267076
-2.1376853 1.3469647 4.5283589
-2.3317041 1.360787 4.5199189
-2.3114212 1.3597676 4.5179782
-2.2847254 1.3585911 4.5159235
-2.272306 1.3585485 4.5166831
-2.2606392 1.3589579 4.5189285
-2.2421551 1.358984 4.5203009
-2.2222805 1.3581605 4.5188031
-2.2107999 1.3586913 4.5213795
-2.1989915 1.3590252 4.5232821
-2.1882226 1.3600093 4.5273347
-2.317538 1.372082 4.5168004
-2.2596655 1.3707131 4.516449
-2.2361941 1.371462 4.5206456
-2.2220523 1.3703586 4.5178356
-2.2113094 1.3713506 4.5219283
-2.1994939 1.3716853 4.5238309
-2.1878793 1.3721496 4.526145
-2.0626268 1.3710445 4.5293365
-2.0362594 1.3699214 4.5267916
-2.0244563 1.3702841 4.5285554
-2.2264125 1.3869613 4.5173674
-2.2110696 1.3835471 4.5209327
-2.0371675 1.3828714 4.5284262
-2.0179796 1.3885779 4.5275745
-1.9996614 1.3948808 4.5286484
-2.235719 1.39586 4.5186291
-2.222383 1.4075805 4.5169396
-2.2104831 1.4016936 4.5189538
-2.1972699 1.4073089 4.5177302
-2.1512477 1.4095021 4.5278997
-2.1138821 1.4093148 4.5294504
-2.037672 1.3955561 4.5291524
-2.2352128 1.4202279 4.5165095
-2.2247753 1.421448 4.5212669
-2.2098818 1.419819 4.5169253
-2.1996315 1.4211718 4.522069
-2.1861155 1.4204177 4.5204787
-2.1624188 1.4210759 4.5241513
-2.1507628 1.4215379 4.5263853
-2.1381729 1.4213841 4.5266385
-2.1124785 1.4207253 4.5259714
-2.2360134 1.4330831 4.5175672
-2.2239766 1.4332861 4.5190868
-2.2124605 1.4338288 4.5216613
-2.1978869 1.432385 4.5179391
-2.1851072 1.4321007 4.5178628
-2.1603761 1.4320712 4.5193596
-2.1365519 1.432649 4.522707
-2.1257997 1.4337254 4.5268464
-2.1072016 1.4336846 4.5277853
-2.2361667 1.4455284 4.5173035
-2.2241247 1.4457304 4.5188227
-2.2120759 1.44593 4.5203171
-2.1975012 1.4444716 4.5165977
-2.1867039 1.4454939 4.5206318
-2.1673608 1.4449513 4.5201416
-2.1251953 1.4456663 4.5250626
-2.1065974 1.4456201 4.5259986
-2.2364182 1.4580396 4.5172281
-2.2239468 1.457963 4.5178857
-2.211473 1.4578834 4.5185161
-2.1994245 1.4642576 4.5197172
-2.1863074 1.4575768 4.5192628
-2.1650898 1.4612654 4.5191154
-2.1491632 1.4636855 4.5212116
-2.1076016 1.4586641 4.5276709
-2.2366853 1.4829141 4.5165658
-2.2239738 1.4703285 4.5173535
-2.2117133 1.4765627 4.518137
-2.1980813 1.4818774 4.516088
-2.1864257 1.4700007 4.5189481
-2.1695352 1.4779402 4.5187955
-2.1492603 1.4822682 4.5206065
-2.1369698 1.4761357 4.5217872
-2.1254854 1.4767404 4.5243988
-2.1074505 1.4770899 4.5265865
-2.2618785 1.4955831 4.515007
-2.1852839 1.493911 4.5154333
-2.167582 1.4944737 4.5184021
-2.149246 1.4946033 4.5200229
-2.1377642 1.4952103 4.5226588
-2.1249466 1.494885 4.5224514
-2.1078887 1.4959307 4.5267549
-2.2499433 1.508219 4.5161805
-2.1677239 1.5069146 4.518116
-2.1497386 1.507293 4.5204954
-2.1375337 1.5073975 4.5216146
-2.1206326 1.508559 4.526279
-2.1673896 1.519026 4.5168324
-2.1501195 1.5199099 4.5207224
-2.1383173 1.5203028 4.5227079
-2.1259973 1.5203304 4.5235872
-2.1684787 1.5383124 4.5181971
-2.1505229 1.5387233 4.5206857
-2.1395011 1.5335044 4.5246387
-2.128897 1.5347736 4.5291982
-2.0456924 1.5388787 4.5276403
-2.0330892 1.5386939 4.5277739
-2.0139642 1.5444181 4.5272012
-2.0017865 1.5445536 4.5282497
-2.2001841 1.5574149 4.5167036
-2.1809878 1.5569458 4.5167031
-2.1618981 1.5565437 4.51686
-2.1510134 1.5576061 4.5208087
-2.1402402 1.5525788 4.5253143
-2.128336 1.5467361 4.527422
-2.052933 1.5582145 4.5288367
-2.0330091 1.5571604 4.5268192
-2.0015945 1.5567535 4.5273137
-1.9774033 1.5571598 4.5297699
-2.1998298 1.5695152 4.5153151
-2.1819773 1.5700068 4.5181093
-2.1630793 1.5697472 4.5187011
-2.1513648 1.5702173 4.5209265
-2.1395378 1.5706104 4.522913
-2.1227889 1.5719435 4.5280027
-2.0263407 1.569132 4.525538
-2.0145473 1.5695684 4.5274825
-1.9900665 1.5697529 4.5293369
-1.9581801 1.5689597 4.5286074
-2.1811981 1.5817966 4.5158339
-2.1632237 1.582206 4.5183606
-2.1505835 1.5819994 4.5186481
-2.1389592 1.5825421 4.5210629
-2.1224597 1.5840682 4.5266886
-2.0665028 1.5838571 4.529633
-2.027405 1.5823109 4.5273781
-2.0154083 1.5825963 4.5288897
-1.9775584 1.5819864 4.5291257
-1.9510601 1.580542 4.5262294
-1.9273732 1.5813671 4.5297861
-2.175283 1.5943401 4.5161743
-2.1626422 1.5941315 4.5164886
-2.1507161 1.5944501 4.5182815
-2.1385777 1.5946144 4.5196185
-2.1224277 1.5964118 4.5259953
-2.1038284 1.5963824 4.5271482
-2.066107 1.5959182 4.528183
-2.0411427 1.5957427 4.5291696
-2.0158746 1.5953225 4.5293961
-2.0029016 1.5948384 4.5287056
-1.9648432 1.5940485 4.5284243
-2.1758318 1.6070976 4.5166383
-2.164211 1.6076472 4.5191026
-2.1521699 1.6078893 4.5206833
-2.1407316 1.6085874 4.523531
-2.1222382 1.6086352 4.5249519
-2.1039329 1.6088302 4.5267529
-2.0914564 1.6087515 4.5273418
-2.0793734 1.6089762 4.52877
-2.0667896 1.6088139 4.5290895
-2.054203 1.6086476 4.5293808
-2.0284414 1.6078417 4.5285797
-1.9520191 1.6060128 4.5274506
-1.9388083 1.6176438 4.5255504
-1.9261405 1.6112044 4.5256596
-1.9148319 1.6120763 4.5287094
-2.1648026 1.6266317 4.5193138
-2.1528029 1.6269093 4.5210037
-2.1407471 1.6333324 4.5222282
-2.1209002 1.6256809 4.5257797
-2.1031215 1.6329376 4.5237269
-2.0917351 1.6337055 4.5266886
-2.0793622 1.6213374 4.528132
-1.966126 1.6321634 4.5297952
-1.9515419 1.6303082 4.5252886
-1.9393111 1.6304078 4.5262022
-1.9139997 1.6298875 4.5259848
-2.1300855 1.6470222 4.5260763
-2.1173964 1.6467835 4.5262942
-2.1040056 1.645993 4.5249748
-2.0921128 1.6463722 4.5268598
-2.0797164 1.6463571 4.5276403
-2.0679057 1.6468085 4.5296903
-1.9524195 1.643391 4.5267835
-1.938128 1.6417505 4.5229015
-1.9151281 1.6431966 4.5281415
-2.1638441 1.6568046 4.5155392
-2.1522958 1.6574321 4.5181909
-2.1241751 1.65962 4.5264339
-2.1050823 1.6592109 4.5266252
-2.0794876 1.6585466 4.5264912
-2.0669854 1.6584451 4.527029
-2.0422628 1.6584679 4.5286717
-2.0297494 1.658355 4.5291281
-1.9525402 1.6558427 4.5265074
-1.9394568 1.6552218 4.5254617
-1.9251719 1.6535608 4.5215511
-1.9144056 1.65492 4.5259013
-1.9025171 1.6553205 4.5276098
-2.1517758 1.6693908 4.5163755
-2.1404161 1.670175 4.5194311
-2.123951 1.6718218 4.5252562
-2.1044543 1.6710875 4.5245891
-2.0915568 1.6706719 4.5243206
-2.0789564 1.6704901 4.5246696
-2.0667477 1.6706227 4.5258541
-2.0538478 1.670195 4.5255008
-2.0293095 1.6703619 4.5275202
-2.0172725 1.670639 4.5290318
-2.0045569 1.6703545 4.5290012
-1.9918402 1.6700653 4.5289421
-1.9666867 1.6697135 4.5293927
-1.9518657 1.6737866 4.5240831
-1.9393803 1.6675017 4.5247245
-1.9263006 1.6730431 4.5233779
-1.9134036 1.672558 4.5227122
-1.8962495 1.6675882 4.5271678
-2.1519399 1.6942382 4.5152383
-2.1071129 1.6855861 4.5296197
-2.0913467 1.6890519 4.522831
-2.0780993 1.6883435 4.521781
-2.0656428 1.6882713 4.5224247
-2.0470245 1.6882166 4.5234976
-2.0296376 1.6830001 4.527616
-2.0164537 1.6885066 4.5262423
-2.0034018 1.6879306 4.5254536
-1.9900674 1.6871085 4.5239849
-1.9723164 1.6877817 4.5268745
-1.9386516 1.6915562 4.5218682
-1.927323 1.6924496 4.524929
-1.9159781 1.6933401 4.5279679
-1.8905224 1.6803309 4.5280075
-2.1532321 1.7076234 4.5171933
-2.1413107 1.7017976 4.5194845
-2.1217251 1.7046947 4.5231333
-2.1051013 1.7025409 4.5242176
-2.0920155 1.7081527 4.5232191
-2.0786119 1.7073091 4.5218525
-2.0652137 1.7064602 4.5204535
-2.0477552 1.7073691 4.5241127
-2.0294042 1.7075406 4.5257826
-2.0172575 1.7077316 4.5270767
-2.0030012 1.7061281 4.5235887
-1.9899017 1.7054961 4.5226636
-1.9716232 1.7057199 4.5243587
-1.9518367 1.7046295 4.5225296
-1.9403238 1.7053665 4.5251808
-1.9264855 1.7040557 4.5223732
-1.9157841 1.7055212 4.5269322
-1.8790206 1.7058022 4.5295806
-2.1664073 1.7206279 4.5171051
-2.1427186 1.7214847 4.5213194
-2.1171901 1.7208662 4.5215793
-2.1053715 1.7213246 4.5237031
-2.0923541 1.7208024 4.5232272
-2.0790429 1.7200311 4.5220776
-2.0554607 1.7210062 4.5263577
-2.0300989 1.7204965 4.526659
-2.0176563 1.7204399 4.5273075
-2.003968 1.7193145 4.5251203
-1.9912392 1.7190028 4.5250635
-1.9713898 1.7178698 4.5231895
-1.9402226 1.7176281 4.5243368
-1.9272133 1.7170461 4.5234871
-1.9155846 1.7176943 4.5258698
-2.166369 1.7329693 4.5162249
-2.1539662 1.7329488 4.5171709
-2.1357043 1.7331977 4.5192833
-2.1175342 1.7335216 4.5215564
-2.0812411 1.7342306 4.5261388
-2.0617995 1.7335049 4.5255446
-2.0437188 1.7339224 4.5279059
-2.0301118 1.7328784 4.5259986
-2.0168972 1.7321589 4.5249224
-1.9922844 1.7322723 4.5267839
-1.9728906 1.7315407 4.5259981
-1.9534109 1.7307159 4.5249362
-1.9423442 1.7318702 4.5286717
-1.928304 1.7303709 4.5254402
-1.903825 1.730588 4.5273571
-2.154526 1.7457741 4.5175438
-2.1406984 1.7445948 4.5154767
-2.1291919 1.7453042 4.5182891
-2.0790989 1.7448137 4.5207286
-2.0609846 1.7451928 4.5230303
-2.0428572 1.7455648 4.525281
-2.0299258 1.74509 4.5248809
-2.0164208 1.744113 4.523159
-2.0038772 1.7439606 4.5235634
-1.9795358 1.7443076 4.5260177
-1.9541409 1.7437233 4.5259871
-1.9417664 1.7437154 4.5266881
-1.929756 1.7440367 4.5282297
-1.9168197 1.7435199 4.5275764
-2.1416485 1.7577413 4.5166779
-2.122817 1.7575212 4.5175767
-2.0907598 1.7565832 4.5175185
-2.0663433 1.7630388 4.5196505
-2.0475352 1.7628217 4.5204086
-2.0292506 1.7630596 4.5222926
-2.0165579 1.7627801 4.5224018
-2.00315 1.761865 4.5208683
-1.9916909 1.7626638 4.5237246
-1.9732294 1.7627455 4.5251002
-1.9544306 1.7625227 4.5256672
-1.9420019 1.7624692 4.5262604
-1.929569 1.7624097 4.5268273
-1.9170409 1.7622598 4.5271511
-1.8983535 1.7621344 4.5278521
-1.880087 1.768577 4.5292192
-2.1550519 1.7833344 4.5161519
-2.1297612 1.770521 4.5178924
-2.0776646 1.7806889 4.5152965
-2.0668883 1.7820587 4.519691
-2.0476301 1.7814522 4.5194869
-2.0295274 1.7818503 4.5218024
-2.0173535 1.7820265 4.523097
-1.992891 1.7822824 4.5253916
-1.9726721 1.7807899 4.5227828
-1.9540564 1.7807275 4.5237808
-1.9405591 1.7796896 4.5218878
-1.9302921 1.7816194 4.5275364
-1.9165177 1.7803164 4.5249381
-1.9044842 1.7806237 4.5264258
-1.879221 1.7801181 4.5265031
-2.1373301 1.796429 4.5186381
-2.1038306 1.794273 4.5156856
-2.090698 1.7936219 4.5150032
-2.0786488 1.7938977 4.5166411
-2.0673735 1.794849 4.5199666
-2.0475235 1.7937244 4.5184808
-2.0306652 1.795224 4.5235844
-2.0181937 1.7951428 4.5242372
-2.0059094 1.7952279 4.5252924
-1.9874725 1.795347 4.5268216
-1.9676185 1.7941787 4.5250654
-1.9524353 1.7915998 4.5193233
-1.9408867 1.7923447 4.5219655
-1.9280365 1.7918892 4.5215583
-1.9159187 1.7921131 4.5228534
-1.8985416 1.7932111 4.5266943
-2.1367416 1.808315 4.5165339
-2.1191673 1.8091711 4.5201974
-2.1063135 1.8087734 4.5201912
-2.092474 1.8075198 4.518023
-2.0758905 1.8092527 4.5237856
-2.0415695 1.8062929 4.5186563
-2.0304508 1.807408 4.5223346
-1.9824128 1.8087555 4.5290856
-1.9694468 1.8082248 4.5285563
-1.9545301 1.805885 4.5234709
-1.9409312 1.8047407 4.5213685
-1.9290881 1.8052251 4.5233383
-1.9168688 1.805361 4.5244188
-1.8984803 1.8055131 4.5258794
-2.1181736 1.8207022 4.5172138
-2.1071036 1.8218391 4.5210409
-2.0950308 1.8221172 4.5227146
-2.0776873 1.8232141 4.5268817
-2.0576985 1.821986 4.5252299
-2.043767 1.8206162 4.5227323
-2.0304234 1.8197566 4.5214872
-2.0187087 1.8203553 4.5238552
-1.9939226 1.8203362 4.5255132
-1.9562447 1.8198431 4.5267205
-1.9440188 1.8199866 4.5278592
-1.9306842 1.8190871 4.526382
-1.9112391 1.8182461 4.5254011
-2.1184695 1.8333375 4.5169711
-2.1071944 1.8343054 4.5203714
-2.0949192 1.834409 4.5216198
-2.071619 1.8357275 4.5268102
-2.0587389 1.835302 4.5267
-2.0452809 1.834353 4.5252771
-2.0321174 1.8336582 4.5244651
-2.0061815 1.8326005 4.5236092
-1.9948208 1.8335391 4.5267854
-1.9125402 1.8380456 4.5274305
-1.8942624 1.8445065 4.5288672
-2.1065872 1.8461612 4.518187
-2.09484 1.8529184 4.5201378
-2.0580101 1.8532363 4.5238304
-2.0450804 1.8527522 4.5235848
-2.0320079 1.8521338 4.5229893
-2.0202727 1.8527331 4.5253592
-2.0061777 1.8573495 4.5219951
-1.9075234 1.8577387 4.5294981
-1.8948979 1.8575025 4.5296698
-2.093472 1.8702817 4.5158396
-2.0552399 1.8693033 4.5164371
-2.0189085 1.8700492 4.5210514
-2.0067835 1.8702904 4.5225377
-1.9815743 1.8698771 4.5232906
-1.8952568 1.8702339 4.5297952
-2.0807564 1.8823628 4.515224
-2.0690448 1.8829743 4.517693
-2.0438566 1.8825938 4.5187235
-2.0326941 1.8837267 4.5223956
-2.0206583 1.8840591 4.5241251
-2.0081406 1.8839437 4.5247612
-1.9887466 1.8831837 4.5242691
-1.9687995 1.8818796 4.5224319
-1.9559088 1.8813885 4.5220962
-1.9440317 1.8818724 4.5240927
-1.9327852 1.8829769 4.5275683
-1.9079766 1.882944 4.5290732
-2.094873 1.8963097 4.5170212
-2.0812023 1.8951468 4.5152736
-2.062892 1.8953946 4.5173712
-2.0451467 1.8961694 4.5206938
-2.0334945 1.8968602 4.5233021
-2.0223053 1.8979939 4.5269523
-2.0093014 1.8974284 4.5265255
-1.9699301 1.8953421 4.524209
-1.956659 1.8944865 4.5230203
-1.9443134 1.894522 4.5239458
-1.9325114 1.8950906 4.5261321
-1.9197887 1.8947581 4.5261459
-2.0826182 1.9088253 4.5174155
-2.0632257 1.9080844 4.5171814
-2.045758 1.9091272 4.5211434
-2.0338106 1.9095489 4.5231128
-2.0219493 1.9100572 4.5252714
-2.0033834 1.9100931 4.5267515
-1.9834991 1.9088613 4.5251861
-1.9698458 1.9076425 4.5231752
-1.9556937 1.9121068 4.5195332
-1.9315852 1.918931 4.5223255
-2.0765991 1.9213803 4.5173702
-2.0620832 1.9295892 4.5178103
-2.0475149 1.9231687 4.5241137
-2.0112255 1.9240603 4.5291061
-1.985001 1.9227053 4.5277514
-1.9704988 1.9268529 4.523386
-1.9432909 1.9306358 4.5190592
-1.9318463 1.9315665 4.5220981
-1.8203633 1.9315139 4.5289917
-2.0829291 1.9462832 4.5151858
-2.0460231 1.9465528 4.5189223
-1.9988678 1.9365209 4.5292664
-1.9843006 1.9406165 4.5248189
-1.9724401 1.9473479 4.5265255
-1.9462137 1.9459283 4.5250025
-1.9263697 1.944664 4.5233493
-1.9094248 1.9463292 4.528492
-1.8464394 1.9452738 4.5299811
-2.0447927 1.9577674 4.5152307
-2.0336888 1.9590067 4.5191073
-2.0208611 1.9585906 4.5191407
-1.9829394 1.9578661 4.5203452
-1.9079509 1.9572085 4.5241385
-1.8975315 1.9592403 4.5296755
-1.8844122 1.9584928 4.528759
-2.0329323 1.9706665 4.516449
-2.0221882 1.9722754 4.5211496
-2.004055 1.9727428 4.5236988
-1.9709283 1.970632 4.5212259
-2.1232605 1.9863958 4.5154524
-2.0224676 1.9849485 4.5207953
-2.0032003 1.9842963 4.5207977
-1.9856117 1.9853095 4.5245681
-1.9710931 1.983186 4.5206671
-1.920993 1.982648 4.523066
-1.8958349 1.9822556 4.5238872
-1.8692863 1.9927511 4.5203838
-1.8460133 1.9819698 4.5264854
-1.8449899 1.993246 4.5231233
-2.1114275 1.9993558 4.516767
-2.072021 1.9972816 4.5154262
-1.9963882 1.9960809 4.5189257
-1.9849715 2.0032685 4.5216503
-1.9719007 1.9963927 4.5215693
-1.9590497 1.9959331 4.5214682
-1.9473691 2.0028648 4.5235872
-1.9301265 2.0041957 4.522985
-1.9092697 1.9957322 4.5246191
-1.8849199 2.0085931 4.526494
-1.8563772 2.0045485 4.5190263
-1.832674 2.0056911 4.5232139
-2.0602372 2.010288 4.5168247
-2.0485237 2.0233784 4.5183821
-2.0327394 2.0200045 4.5218616
-1.9988301 2.0171351 4.5229645
-1.9598047 2.0214946 4.5212765
-1.9287338 2.0214272 4.5234623
-1.9096153 2.0208783 4.5235882
-1.8987123 2.0224707 4.5280437
-1.8726932 2.0211716 4.5268493
-1.8451147 2.0181317 4.5216842
-1.8329465 2.0183663 4.5230165
-2.0736601 2.0360909 4.5157719
-2.0607984 2.0356495 4.5159073
-2.0495589 2.0368149 4.5195966
-2.0361202 2.0357957 4.5184102
-2.0235374 2.0356257 4.519094
-1.9977115 2.034606 4.5188961
-1.910813 2.0345464 4.5254793
-1.8997195 2.0359523 4.5295086
-1.8720065 2.0328202 4.5242672
-1.8332143 2.03104 4.5227914
-2.036571 2.0486574 4.5183339
-2.0233216 2.0478141 4.5175433
-1.9354265 2.046737 4.5221887
-1.9228203 2.0465224 4.5226507
-1.8988496 2.0474231 4.5264716
-1.8864065 2.0473857 4.5272784
-1.8600192 2.0456586 4.5251822
-1.8467891 2.0447371 4.5239825
-1.8339969 2.0442915 4.5238214
-1.821033 2.0436468 4.5232043
-1.8099511 2.0451198 4.5272689
-2.0365438 2.0610406 4.5171757
-2.0242329 2.0611472 4.5184951
-1.9712479 2.057683 4.5150437
-1.9420348 2.059566 4.5216446
-1.9242891 2.0604928 4.5251141
-1.9102352 2.0587237 4.5221534
-1.8863316 2.0597069 4.5261331
-1.8676951 2.0596824 4.5273981
-1.8494016 2.0600338 4.5294604
-1.8113937 2.059149 4.5299826
-2.0635192 2.0756073 4.518517
-1.9382017 2.0745053 4.5266495
-1.9257514 2.0744753 4.527544
-1.9109699 2.0719171 4.522892
-1.8678759 2.0722826 4.5268645
-2.0514545 2.0884013 4.5193076
-1.9263083 2.0874953 4.5278206
-1.9128673 2.0925934 4.5258484
-1.825194 2.0979507 4.5298028
-1.7614588 2.0959692 4.5295701
-1.9870487 2.1108615 4.5174022
-1.9763539 2.1127024 4.5224104
-1.964173 2.112968 4.5240245
-1.9394674 2.1069217 4.5269608
-1.9269586 2.1130486 4.5272288
-1.9126091 2.1109297 4.5236568
-1.8998759 2.110579 4.5238633
-1.8878475 2.1110117 4.5257368
-1.736161 2.1077673 4.5288925
-1.9755497 2.1242597 4.519433
-1.9573672 2.1247489 4.5220499
-1.9264246 2.1248839 4.5248823
-1.9148421 2.1258209 4.5278702
-1.8118824 2.1217167 4.526433
-1.7622062 2.1216626 4.5296159
-1.7367668 2.1209004 4.5295482
-1.9567411 2.136487 4.5194688
-1.7363045 2.1327302 4.5273948
-1.724274 2.1331871 4.5291371
-1.6989809 2.1325741 4.5293331
-1.6864512 2.1324086 4.5297108
-1.9777853 2.1515265 4.5222316
-1.9579785 2.1502614 4.5211754
-1.940165 2.1511827 4.5246921
-1.9263338 2.1496243 4.5224347
-1.8667154 2.1515646 4.5173254
-1.8127081 2.1599078 4.5254173
-1.7367388 2.1456609 4.527565
2.1752989 2.1505964 4.5295606
-2.0411758 2.1652377 4.5180001
-2.0277724 2.1642139 4.5170388
-2.0147479 2.1635842 4.5168824
-2.0040421 2.1654525 4.521934
-1.9899957 2.1637115 4.5194168
-1.9654063 2.1640213 4.5222626
-1.9523778 2.1633661 4.5219631
-1.9405229 2.1640112 4.5243702
-1.8819941 2.161067 4.5227394
-1.8474296 2.169358 4.5154243
-1.8065326 2.1723537 4.5248766
-1.7864553 2.1705835 4.5224996
-1.7728574 2.1691222 4.5203071
-1.7605929 2.1692834 4.5214877
-1.7489793 2.1702542 4.5243454
0.08579839 2.1655154 4.5248284
-2.0474401 2.1777194 4.5162144
-2.0286398 2.1775777 4.5177164
-2.0156066 2.1769409 4.5175653
-1.9915726 2.177866 4.5217814
-1.9740974 2.1810391 4.5208392
-1.9527807 2.1824594 4.5211058
-1.9023833 2.1817079 4.5237389
-1.8488635 2.1834424 4.5178199
-1.8368762 2.1839404 4.5197983
-1.7868212 2.1834288 4.522366
-1.7606992 2.1818058 4.5207214
-1.7494911 2.1832895 4.524642
0.5895347 2.1873569 4.5163031
-2.0426514 2.1979225 4.518055
-2.0288475 2.1902401 4.516901
-2.0045307 2.1908665 4.5205479
-1.9655844 2.2015159 4.5190144
-1.9524531 2.2007346 4.5185142
-1.9023476 2.2003069 4.5218911
-1.8881665 2.1982698 4.5187182
-1.8617618 2.1964235 4.5169086
-1.8483943 2.1952858 4.5155363
-1.8367486 2.1961915 4.5183592
-1.8244071 2.1962717 4.5194659
-1.8118908 2.1961415 4.520123
-1.7740731 2.1954064 4.5212927
-1.7618757 2.1956635 4.5226889
-1.7502451 2.1966357 4.5255466
0.57833803 2.1914957 4.5249705
-2.0808687 2.205055 4.5155053
-2.0432429 2.2172353 4.5173779
-2.0306535 2.2170906 4.5183101
-2.005651 2.2169907 4.5205069
-1.9917665 2.2154007 4.5184312
-1.9526218 2.2133543 4.5176582
-1.9017013 2.2119813 4.5191507
-1.8816181 2.2102861 4.5172219
-1.836532 2.208334 4.5166821
-1.8254651 2.2099557 4.5209579
-1.8137 2.2107489 4.5235214
-1.7638723 2.2105653 4.5267439
-1.7519788 2.2112288 4.5289679
-2.0175087 2.2287803 4.5166469
-2.0043585 2.2280037 4.5162721
-1.9787997 2.2272561 4.5171037
-1.8501563 2.234607 4.5163236
-1.8252424 2.2220953 4.5192528
-1.8143196 2.2239234 4.5239272
-1.9014603 2.236541 4.5161147
-1.8852468 2.2411032 4.5179529
-1.8640641 2.2363977 4.5189433
-1.8516529 2.2488339 4.5187678
-1.815104 2.2373092 4.5247235
-1.8784614 2.2511811 4.5214381
-1.8666973 2.2519939 4.5241098
-1.8414465 2.2639811 4.5240054
-1.8306346 2.272218 4.5284214
-1.8917297 2.2894838 4.518496
-1.905198 2.3031604 4.5184813
-1.8786819 2.3011813 4.5168028
-1.892316 2.3150768 4.5172067
-1.9066652 2.3298426 4.5192065
-1.892866 2.3281949 4.5171432
-1.7433994 2.3281195 4.5293927
-1.9066049 2.3422229 4.5176497
-1.7820331 2.3547039 4.5271521
-1.7687749 2.3411927 4.5274134
-1.7433758 2.340533 4.5280662
-1.9327118 2.3685865 4.5151367
-1.9074173 2.35568 4.5181427
-1.8952776 2.3685448 4.5186357
-1.7695518 2.3671286 4.5267653
-2.0906777 2.378099 4.5172915
-1.8944232 2.3799329 4.5151267
-1.7297784 2.3762918 4.5221138
-1.6813592 2.3781993 4.5295076
-1.6686312 2.3778059 4.5296597
-2.0907569 2.3907011 4.5158043
-2.0780637 2.3904989 4.5168734
-2.0641525 2.3888845 4.5152483
-1.9351503 2.3965292 4.5178084
-1.9082608 2.3941152 4.5156999
-1.6690426 2.3908398 4.5294924
-2.0270059 2.4143386 4.5170078
-1.8840795 2.4075496 4.5184026
-1.7186596 2.4030149 4.5238833
-2.0665269 2.4166665 4.5171137
-2.04739 2.4225068 4.5176406
-2.0148864 2.4273143 4.517612
-1.8974882 2.4212108 4.5178967
-1.8712819 2.4196022 4.5172853
-1.7061378 2.4215851 4.5226068
-1.8969722 2.4330244 4.5151038
-1.8853734 2.4341593 4.5184331
-1.7050784 2.4387376 4.5176926
-1.7953793 2.4555485 4.5169134
-1.7788 2.4584787 4.5239687
-1.7595086 2.45768 4.5241184
-1.7473153 2.4580784 4.5259142
-1.7613196 2.4726934 4.5272789
-1.7341866 2.469625 4.5237784
-1.7481787 2.4842513 4.5251451
-1.7346909 2.4828153 4.523592
-1.72058 2.4804604 4.5203443
-1.6551058 2.4881899 4.5153127
-1.7196546 2.4915795 4.5163932
-1.6943895 2.5035193 4.516027
-1.6440204 2.4902446 4.5200195
-1.6316681 2.4966207 4.5205235
-1.8102181 2.508678 4.5153837
-1.7226741 2.5084295 4.5227976
-1.6695613 2.5160973 4.5167766
-1.7101429 2.5208304 4.5221686
-1.698065 2.5339062 4.5227313
-1.6701014 2.5293665 4.5166979
-1.9553227 2.5437822 4.5158324
-1.6865083 2.5477834 4.5246921
-1.6728604 2.5460212 4.5226045
-1.6575503 2.5416839 4.5159154
-1.6457499 2.5427036 4.5187464
-1.6340107 2.5438337 4.5217609
-1.9701486 2.5592887 4.5178404
-1.9568168 2.5582621 4.5174508
-1.7263505 2.5637906 4.5260444
-1.7139231 2.56391 4.5273633
-1.6756133 2.5627079 4.5284648
-1.661347 2.5599892 4.5246954
-1.6495162 2.5610106 4.527534
-1.6378058 2.5747306 4.5291314
-1.6650732 -0.03607817 4.535892
-1.2984306 -0.036170091 4.5401278
-1.2105565 -0.036130264 4.5329976
-1.1738973 -0.036142219 4.5335732
-1.1626283 -0.036175966 4.5375028
-2.4082813 0.0070714932 4.5327964
-2.3967459 0.0070744921 4.5349379
-2.38328 0.013242373 4.5333967
-2.3691876 0.013232624 4.5306134
-2.2252042 0.013256871 4.54426
-2.4712253 0.025599537 4.5316954
-2.451998 0.02559229 4.5314522
-2.4343102 0.025601096 4.5340157
-2.4221942 0.025603624 4.5351052
-2.408551 0.025589954 4.533299
-2.3977139 0.025606109 4.5367675
-2.3848863 0.025601063 4.5364532
-2.359694 0.025595833 4.5366297
-2.4526772 0.037948355 4.5327039
-2.4340417 0.03794669 4.5335059
-2.4221618 0.037954118 4.5350361
-2.4094553 0.037948601 4.5349965
-2.3920236 0.037966069 4.5379801
-2.299809 0.037974093 4.542778
-2.4670048 0.050337523 4.5356293
-2.4483593 0.050335482 4.5364785
-2.436594 0.05034785 4.5382576
-2.4218814 0.05029913 4.5344987
-2.4092934 0.050294261 4.5346799
-2.3106847 0.050299056 4.5393906
-2.2993133 0.050320577 4.5417886
-2.5599833 0.062702388 4.5301719
-2.5218849 0.062677488 4.5308685
-2.4848688 0.062679127 4.533289
-2.4620814 0.062728427 4.5382895
-2.4500797 0.062737867 4.5396571
-2.4377172 0.062738128 4.540338
-2.424999 0.06272918 4.5403323
-2.399328 0.062704891 4.5397949
-2.5735161 0.087462105 4.5313015
-2.5493736 0.081298903 4.5341201
-2.5236549 0.081267498 4.5340195
-2.5086319 0.075005919 4.5300212
-2.4965754 0.087367103 4.5313077
-2.4731896 0.081235029 4.5352345
-2.4393001 0.075153947 4.5432734
-2.4264574 0.075139642 4.5430498
-2.4126787 0.075096056 4.5410318
-2.3609037 0.087376811 4.5388956
-2.3363464 0.075028405 4.5402598
-2.3169053 0.081172824 4.5392084
-2.3005538 0.081251718 4.5442119
-2.5729275 0.099804908 4.5302305
-2.5610852 0.099825405 4.5320435
-2.5489919 0.099836268 4.5333953
-2.5227289 0.099776201 4.53231
-2.4962389 0.09970589 4.5306683
-2.4740682 0.099808402 4.5368099
-2.3737588 0.099751242 4.539279
-2.3350265 0.099680915 4.5376534
-2.317534 0.099725604 4.5404172
-2.3003612 0.099784732 4.5438051
-2.5224996 0.11212525 4.5318632
-2.4960103 0.11204614 4.53022
-2.4859517 0.11214974 4.5351648
-2.3867183 0.1121355 4.5398288
-2.3352616 0.11203964 4.5380883
-2.3177669 0.11208984 4.5408525
-2.2876294 0.1121271 4.5434933
-2.5227427 0.12449538 4.5322642
-2.4962513 0.12440757 4.5306225
-2.4861908 0.12452254 4.5355668
-2.4134429 0.12459775 4.5423713
-2.3709865 0.12431819 4.5339155
-2.3354838 0.12440016 4.5384955
-2.3175902 0.12443458 4.5404816
-2.2880707 0.12450944 4.5443492
-2.4862974 0.13689043 4.5357232
-2.4256532 0.14932658 4.5413651
-2.41189 0.14305744 4.5393915
-2.3929839 0.14303875 4.5396166
-2.3724575 0.14292267 4.5366864
-2.3605475 0.1429466 4.5380917
-2.349647 0.1492147 4.5414267
-2.3325698 0.14506027 4.5409646
-2.3120577 0.13682604 4.5419621
-2.300565 0.13687776 4.5441394
-2.4382186 0.16170791 4.5410328
-2.4252603 0.16166902 4.5405869
-2.4101958 0.16148859 4.5361385
-2.39223 0.16152722 4.5381269
-2.3735566 0.16151826 4.5387387
-2.3609505 0.16150145 4.538816
-2.3498333 0.16158687 4.5417523
-2.3252826 0.16159944 4.5431142
-2.3008258 0.16161887 4.5445971
-2.4618287 0.17399694 4.5375209
-2.4487567 0.17394702 4.5369067
-2.4353335 0.17387155 4.5356035
-2.4232087 0.17388843 4.536694
-2.4111958 0.17391358 4.537981
-2.3861067 0.17388719 4.5384903
-2.3625069 0.17396989 4.5417757
-2.3508093 0.17401949 4.5436053
-2.3386455 0.17403489 4.5445228
-2.4714949 0.18615721 4.5317907
-2.4518435 0.18607241 4.5307789
-2.4216149 0.1861221 4.5336571
-2.4099591 0.18617602 4.5356026
-2.3915279 0.18618408 4.5367055
-2.3723938 0.18613724 4.5364289
-2.363245 0.18639007 4.5431557
-2.2877324 0.18628544 4.5435295
-2.651216 0.19901352 4.5309739
-2.6388738 0.19901693 4.532084
-2.445771 0.19842546 4.531261
-2.4347184 0.19853131 4.5343547
-2.4224772 0.19854084 4.535224
-2.4105828 0.19857901 4.5367293
-2.3969328 0.1984722 4.5348964
-2.373239 0.198557 4.5380025
-2.3620133 0.19865228 4.5407391
-2.3514624 0.19880566 4.5447865
-2.2879868 0.19866641 4.5439992
-2.6317716 0.22370383 4.5308585
-2.4472375 0.22324978 4.5338655
-2.4347539 0.21706316 4.5343351
-2.4224522 0.21706891 4.5350938
-2.4099133 0.21705097 4.5353861
-2.3973141 0.21702841 4.5355401
-2.3784409 0.2169992 4.5357738
-2.3616953 0.21716125 4.5400543
-2.3505712 0.21727458 4.5429907
-2.3382959 0.22346781 4.5436697
-2.3008652 0.22343671 4.5444856
-2.2867703 0.21091446 4.5415397
-2.2565327 0.22333348 4.543869
-2.4522905 0.23549445 4.5313702
-2.4345281 0.23556848 4.5338225
-2.4221675 0.23556806 4.5344701
-2.4099209 0.23557875 4.5353127
-2.3977866 0.23560064 4.5363512
-2.3786478 0.23554114 4.5360885
-2.3610075 0.23563004 4.5386505
-2.3498847 0.23575415 4.5415854
-2.3385196 0.2358551 4.544055
-2.2858701 0.23552908 4.5396628
-2.2742505 0.2356052 4.5415635
-2.2560787 0.23564345 4.5429153
-2.5637462 0.2484674 4.536046
-2.4588761 0.24788257 4.5317059
-2.4349904 0.24796642 4.5346184
-2.4235671 0.24806213 4.5370307
-2.4108458 0.24802533 4.5369935
-2.3919363 0.24798736 4.5372152
-2.3734884 0.24799688 4.5382676
-2.360532 0.24793427 4.5376792
-2.3496399 0.2480889 4.5410562
-2.3381605 0.24818291 4.5433035
-2.2866354 0.2479609 4.5411391
-2.273895 0.24791925 4.5408072
-2.2615983 0.24792579 4.5413427
-2.2492967 0.24793184 4.5418525
-2.5742409 0.26065433 4.5317283
-2.5633647 0.26080677 4.5352821
-2.4523814 0.260198 4.5313954
-2.4221344 0.26026618 4.5342751
-2.4108214 0.2603789 4.5368819
-2.3985651 0.26039028 4.5377007
-2.3742707 0.2604374 4.5397048
-2.3625758 0.26051122 4.5415559
-2.3501842 0.26050857 4.5420527
-2.3319302 0.26054198 4.5434141
-2.2995691 0.26037899 4.5417762
-2.2855942 0.26019531 4.5390182
-2.2734156 0.26021525 4.5398002
-2.2492619 0.26027936 4.541738
-2.4463849 0.27873886 4.5319648
-2.4226623 0.27885234 4.5351562
-2.4107854 0.27273083 4.5367441
-2.398994 0.27279565 4.5384455
-2.3740001 0.27276519 4.5391226
-2.3618455 0.27278918 4.5400867
-2.3489976 0.272733 4.5396948
-2.3363786 0.27270293 4.5397191
-2.3119271 0.27273464 4.541245
-2.2982025 0.27874672 4.53899
-2.2854092 0.27869278 4.5385714
-2.2742631 0.27266514 4.5414462
-2.2606006 0.27867919 4.5392156
-2.2491307 0.27879038 4.5414009
-2.4460075 0.29721633 4.5311418
-2.4353876 0.29124975 4.5351
-2.4224606 0.29735833 4.5346622
-2.4111152 0.29130393 4.5372543
-2.3946426 0.28924653 4.5381122
-2.3744948 0.29136157 4.5399675
-2.361876 0.29132912 4.5400457
-2.349313 0.29130489 4.5402083
-2.337204 0.29133764 4.5412321
-2.318207 0.29128057 4.5411067
-2.2982748 0.29727969 4.5390463
-2.287329 0.29746291 4.5423069
-2.2741148 0.29117519 4.5410695
-2.2567892 0.29751104 4.5441093
-2.2375462 0.29741848 4.5432839
-2.2131238 0.29745853 4.5446262
-2.4581757 0.30953965 4.5300083
-2.4340484 0.30961278 4.5324759
-2.421566 0.30959633 4.5329022
-2.410485 0.3097598 4.5359478
-2.3975265 0.30968249 4.5354404
-2.3785543 0.30962563 4.5355086
-2.3622267 0.30991471 4.5406156
-2.3493743 0.30985054 4.5402236
-2.3386886 0.31007299 4.5440216
-2.3116109 0.3097603 4.5404396
-2.2987566 0.30969375 4.5399384
-2.2871354 0.30979338 4.541862
-2.2748339 0.30980152 4.5424232
-2.2627506 0.30983958 4.5434074
-2.2498858 0.30977049 4.5427999
-2.2255814 0.3098284 4.544416
-2.4207768 0.32183921 4.5313363
-2.40923 0.32194638 4.5334973
-2.3915997 0.32206756 4.5361419
-2.3732591 0.32209423 4.5374136
-2.3620224 0.32224733 4.5401464
-2.3495131 0.32222754 4.5404201
-2.3381414 0.32236436 4.5428858
-2.3181157 0.32215983 4.5407619
-2.2976511 0.32189047 4.5376859
-2.2871537 0.3221516 4.5418358
-2.2740705 0.32204938 4.5408354
-2.2568874 0.32224241 4.5441942
-2.2122853 0.32204959 4.5428033
-2.4338682 0.3342849 4.53196
-2.4210322 0.3342182 4.5317254
-2.4093654 0.33431309 4.5336666
-2.3980396 0.33445647 4.5362463
-2.3789449 0.33437848 4.5360947
-2.3620355 0.33460864 4.5400934
-2.3492961 0.3345553 4.5399237
-2.3373544 0.33461556 4.5412793
-2.3168783 0.33433741 4.5382643
-2.2982209 0.33431914 4.5387464
-2.2877197 0.33459014 4.5428967
-2.2750788 0.33454949 4.5427899
-2.2566686 0.33456922 4.5436935
-2.2384665 0.33462065 4.5449944
-2.2239504 0.33429733 4.5409727
-2.2127206 0.33446717 4.5436463
-2.4337583 0.3527897 4.53161
-2.4213314 0.35277867 4.5321455
-2.4080253 0.35263929 4.531002
-2.3915048 0.34675893 4.5357909
-2.3719442 0.35278147 4.534687
-2.3606575 0.34676567 4.5373583
-2.3473442 0.35279638 4.5360241
